ply
format ascii 1.0
element vertex 624
property float x
property float y
property float z
end_header
4.952556776488142298e-01 -1.958844609069433640e-01 -2.717732869693211817e-01
-2.799908595894274876e-01 -2.426249168778419063e-01 -2.534677502294346157e-02
5.207970528965700785e-01 -1.614498586376828526e-01 2.429802071921216833e-01
-6.119350831809350355e-01 -2.013655505738625173e-01 1.930315019308962154e-01
5.934115178801505630e-01 -2.109252153117213702e-01 -3.376001003433665715e-01
-5.023354738417665777e-01 4.111881726000389814e-01 3.188739065278465290e-01
4.240858605456833130e-01 -1.184176818475377174e-01 1.732114287192186297e-01
-3.534884180737153381e-01 4.512750280684368342e-01 4.579057840396729140e-01
-3.835499454781448048e-01 -1.719116226217201060e-01 -7.417100431751144640e-01
-9.329986092983449247e-03 2.880924517690002795e-01 2.911058340585442328e-01
5.036305000113020514e-01 5.492492118332755746e-01 4.971139577090120110e-01
-3.931030882265303394e-01 -3.041287399478176945e-01 1.291952799903828830e-01
-3.666612326162081437e-01 5.719192515221455109e-01 4.406325543122394661e-01
-5.759696910271611126e-01 -1.770889005299340901e-01 -5.635576797615061695e-01
2.910250389092604584e-01 -1.704546583540772764e-01 -1.917930379781987160e-01
8.527174744038666654e-02 -2.883968309479525427e-01 1.413020727635795892e-01
1.710522637634235843e-01 -1.590625015972344791e-01 -4.729253324151648230e-01
-2.697499198901486817e-01 -1.663684216512311964e-01 -4.310922313498091740e-01
5.707103882354137570e-01 -1.972826385733061072e-01 -1.750792688515446227e-01
4.872196914784365784e-01 -1.821527321652329501e-01 -5.295916833830337511e-01
4.381275367030385004e-01 -1.986351723180596607e-01 -5.901491070961967234e-01
5.412477786779377187e-01 -2.310078239063174943e-01 2.991252167058802008e-02
3.167317722681631809e-01 -2.679424945601976416e-01 -7.175350747752173852e-01
-6.509298460068792258e-02 6.230399445537260217e-01 4.222644947889176437e-01
2.578325556741896118e-01 -2.398572812345757810e-01 -3.838188596166658417e-01
-5.417211812259210557e-01 -2.795100139223087310e-01 2.077176681845999476e-02
-5.955240662380276717e-01 5.179524860040076728e-01 4.816378211957462741e-01
5.974637459501683789e-01 -2.149629670185882746e-01 1.982668200936834602e-01
-1.459989136575362001e-01 -1.915260867730689265e-01 -6.807293948371448411e-02
-1.954585394160438805e-01 -2.280426784352269642e-01 -2.879695955203169233e-01
1.368755113042367799e-01 -2.544838169814942486e-01 -2.321749190548540176e-01
-1.539147446405510385e-02 -1.545401054565669619e-01 1.827463851352503221e-01
-1.349593300752661984e-01 5.777869694566373227e-01 4.632992512232979032e-01
1.962365893615952706e-01 3.065565958906395494e-01 4.040710230371037937e-01
2.057770069125310075e-03 -1.437016172791993895e-01 -5.462626344970129832e-02
-3.008448792169249875e-01 -2.176680525316219694e-01 -6.166002543395274760e-01
4.007435558332408942e-01 4.955138050236206765e-02 3.049537601835520251e-01
-3.156434839681908355e-02 6.261488917373164709e-02 3.481498429640800807e-01
1.211409123369849850e-02 -2.425419546248384559e-02 2.934480907839403518e-01
-5.716673155570332066e-01 9.183600440137014431e-02 3.289263698335538333e-01
1.815840297747625121e-01 5.411794481498302112e-01 4.795652215740496271e-01
-6.505371015258573641e-02 -2.149802767017143235e-01 -2.573235286496646235e-01
-2.654879759630572322e-01 -1.316961859318163119e-01 2.290001661977578429e-01
1.986600703579697036e-01 -2.568778947756996667e-01 -1.276090109815981588e-01
-4.420286444139409632e-01 -2.264184293661983260e-01 -4.122724165887713954e-01
-8.427560297491965002e-02 -2.170064010812176036e-01 -4.623214025557527140e-01
-1.853973930033708528e-01 -1.448681032065553265e-01 2.109524139611822224e-01
-4.278562269837996590e-01 -2.733118574190418482e-01 -5.511914106277848724e-01
-6.571478660028342578e-01 2.815116877358007641e-01 3.329383452730774184e-01
-3.393300515056318356e-01 -1.879368628638137528e-01 -3.072668346575265774e-01
-1.514305563841293334e-01 -2.553968694142489393e-01 -5.742170045361074671e-01
3.790187330828347356e-01 -1.764657347475067917e-01 -6.651390820823951389e-01
-2.880888627492658172e-01 3.578575577042568678e-01 4.581191010701195498e-01
5.258233785471179145e-01 -2.679606998658896622e-01 -4.316376554987018110e-01
3.433525585588424467e-01 1.386259626803508505e-01 3.173220641632681915e-01
-3.446547005710592915e-04 -1.306415476027828759e-01 -3.133629998021376095e-01
-1.057188725856459954e-01 -1.359685129827888916e-01 -5.989999218023732697e-01
7.721121585808114751e-03 4.412773101310599744e-01 3.102247130328243396e-01
2.449308756372027551e-01 -8.736520774715272886e-02 3.317231512232654556e-01
-5.088784960061999429e-01 -2.000124934677096344e-01 -2.778123400114235197e-01
3.759559933147916255e-01 -1.385317415982429412e-01 1.711552091107624782e-02
4.123003369208445013e-01 -2.058088754982114188e-01 -3.285520153164202539e-01
3.669951257639148534e-01 -2.854371919848628925e-01 -2.619583433748631784e-01
2.717857119170217772e-01 -2.697369475679439743e-01 -5.069773350191766337e-01
5.460668591559578733e-01 -1.393932648149234232e-01 -7.435722377522142601e-01
5.471674667908728029e-01 -2.564222032884039271e-01 -6.509194656269212675e-01
-1.377485456647547790e-01 -1.400936473945261010e-02 2.534968462596646765e-01
-1.750099609760553121e-01 -1.380969889771062609e-01 8.394761578129369961e-02
2.888187748753707762e-01 -2.375377874213842888e-01 1.895131454393672865e-01
1.592838322593335687e-01 -2.647294862293464446e-01 -3.901247599151632106e-01
-3.725553453675197746e-01 -1.566911530978802591e-01 -1.447396887623648987e-02
4.114863966131289130e-01 -2.797062158435058565e-01 8.245457251665493092e-02
-6.124579361860110760e-01 -1.687202626163623043e-01 -1.497474905128824696e-01
3.268848330709572814e-01 6.784184964246235960e-01 4.217477839788814631e-01
4.835694801972916235e-01 -1.249150461829030695e-01 -4.157971286164741792e-02
-5.627142688926106695e-01 -2.241304358101828265e-01 -7.362267052122237754e-01
-5.979303070131699593e-01 3.762299080154855591e-01 3.512157990091255289e-01
-1.796827054787956679e-01 -1.446372124280228544e-01 -1.524790933133685633e-01
-1.266349233014352760e-01 3.387205667035254608e-01 3.340440663433396629e-01
-5.207136155970099045e-01 2.214697836488854210e-01 3.402289493647795426e-01
4.078766900028912151e-02 5.393567073616277741e-01 4.704192603711820908e-01
1.628025406550797916e-01 4.164472932489543533e-01 4.072912271416417318e-01
1.017711579040024711e-01 -2.445333114358161641e-01 2.804440908725449461e-02
-2.836612715808654595e-01 -1.082125652039792052e-01 2.587573630191852270e-01
-1.817967023664739667e-01 -2.237948055775803025e-01 2.193760081146792218e-01
2.851978743028106278e-01 5.043083451816252616e-01 4.417944933983865008e-01
4.449683197376980148e-01 -2.207936781852685992e-01 -6.274601589697966775e-01
-3.223960884428707097e-01 -1.706686912998021388e-01 -5.599079944406267773e-01
1.094222551153910539e-01 3.227418151158475274e-02 3.645817921152100238e-01
-4.213317945498535333e-01 -1.555035924625941535e-01 -2.339054513347384734e-01
1.818615144729412714e-01 -2.348316046914442068e-01 1.227120686532304911e-03
-3.014205958333396884e-01 -2.361374724094247035e-01 -5.291263184153506272e-01
-6.153876334566193984e-01 -6.387614003736896695e-02 1.664568811822298988e-01
-4.157840860541648920e-01 -1.138058422841247141e-01 2.582816859094472228e-01
-2.606491261711431640e-01 -2.722850664443743907e-01 -1.784242654916961823e-01
-4.821408731337229608e-02 -2.430852187007833953e-01 8.454523177108305698e-02
-1.962830912880786927e-01 -2.305451888042867881e-01 -5.708354182210280403e-03
3.074912859516381047e-01 3.586891919429850417e-01 3.655781980134916731e-01
-5.576816074082360242e-01 4.397150232554006832e-01 4.024695804109163499e-01
1.815722101998429316e-03 -1.952648587812333969e-01 -5.751154103138303997e-01
-1.089331239139785940e-01 3.984998446196232336e-01 4.012010557074185968e-01
2.959808834689717227e-01 3.742630146627675975e-03 2.934444712245692366e-01
5.974991524048383074e-01 1.239735187681097195e-01 3.223073074479213540e-01
-4.671959063379559247e-03 -1.293800705712926657e-01 1.198007136264069294e-01
-3.456076545427348712e-02 -1.759260892422800371e-01 -2.909296547662088006e-01
5.388110059098362159e-01 4.556597811165008505e-02 2.975932878962060935e-01
2.334418413479055210e-01 -2.501743889843905944e-01 -5.918304231158636464e-01
5.766259939424660530e-01 -2.479636372046842285e-01 -5.202261721457427379e-01
4.993266120876735936e-01 -1.882387883748482538e-01 -4.122924840926392442e-01
2.305212146739334667e-01 -1.573116377140051925e-01 1.338641605181339622e-01
-5.412274019728410268e-01 -1.506831323182999116e-01 -6.477004493243799788e-01
-6.314051883255124009e-01 -1.679568362227303047e-01 -3.783260179505814058e-01
1.006416136956088808e-01 2.451809606839509548e-01 3.477489430758281541e-01
-9.716701241358194352e-02 -1.724999803177945101e-01 1.535749351487969150e-01
1.951940352265542633e-01 -2.842059247094419483e-01 2.282267163070706706e-01
9.507837748289987845e-02 -2.559961800273407029e-01 -5.697819889629368584e-01
2.836281017701447471e-01 -2.135184452352184570e-01 -3.461459876366629329e-01
2.248299501638189590e-01 -1.994801725122609670e-01 -7.400896479526499760e-01
5.987685262362912875e-01 -1.904118563169912015e-01 -6.186847822237095951e-01
3.065154902044622126e-02 3.578666852403269427e-01 3.267676297421949205e-01
9.789310701820959359e-02 -1.505059348856951640e-01 -1.464549940076493098e-02
-1.613303325747672545e-01 1.529660259677969314e-01 3.356769250500707402e-01
-5.479950442112487830e-01 -1.224943237008502828e-01 1.621003580042694181e-01
-5.211889213349596428e-02 -2.407588606714639312e-01 -1.306228293383256689e-01
-3.675797988694792795e-01 -2.683138909624452340e-01 -7.682727851369816063e-01
5.930337015721431904e-01 -1.784393302433518735e-01 3.632642380376344127e-02
1.436847887090440257e-01 -2.036061931780633327e-01 -6.433446907334935405e-01
-4.786247759664712387e-01 -1.784051707163172573e-01 -4.742356797300196214e-01
1.195300131113825187e-01 -1.905246116694769842e-01 1.821283318316646860e-01
-2.806987669344357950e-01 -1.756702155269561083e-01 -6.051195759553541775e-02
-2.582964000393950244e-01 -2.786600277929928704e-01 1.147102645794587650e-01
1.251961581236988863e-01 -1.825534891521946035e-01 -2.630739139774365132e-01
5.152797061440821391e-01 2.368917444703324549e-01 3.941418266048705710e-01
3.630775531795434330e-01 -9.727448508136700769e-03 2.382475470324629530e-01
-4.912455942037012302e-01 -2.784156912131274253e-01 -1.892862074776113235e-01
3.756599359389033999e-01 -2.495844150970516484e-01 -3.570902270722602079e-02
3.120971701578876406e-02 -2.635346833869082750e-01 -3.941295010073567751e-01
3.355212283729385736e-01 -1.637409207202455419e-01 -6.332165774378348821e-01
3.587673045095174373e-01 -2.298336902356461209e-01 -5.171718648362739756e-01
4.887093965006790164e-01 -1.617409303670662990e-01 -1.874777189679744938e-01
-4.893932734082888092e-01 -2.346071491539993836e-01 -3.660565584651315763e-01
7.186777992002368887e-02 -1.905850608396612300e-01 -4.303879372402437675e-01
-3.181986432697471723e-01 -1.741649935925505266e-01 -4.033197637430686044e-01
-2.360857676774575642e-01 -2.512545237052604130e-01 -3.255993685616805910e-01
-1.217918002502687835e-01 1.108112240349460181e-01 2.831144944739427682e-01
6.420734955775572184e-01 4.358686343879738523e-01 3.816209076363082930e-01
-5.471259440303617438e-01 -2.489456667117091737e-01 -4.795838898076761336e-01
1.077099763245916442e-01 -1.701588616568631418e-01 8.952300632202929431e-02
-5.266115297463852540e-01 -1.998575710760168711e-01 -4.662331131361011072e-01
-6.434976296618810654e-01 -2.061463957743375208e-01 -1.816472363155062844e-03
5.154604362388985617e-02 4.994266809177351218e-01 4.558337026706748563e-01
4.902258717303471514e-01 -2.521624335237275805e-01 -3.372260458161663310e-01
-2.388735952823877462e-01 -1.760765263689414717e-01 -3.013008370096721955e-01
-1.881832662076824980e-01 4.461331100721569465e-01 4.172765588598326691e-01
-4.487047242152069626e-01 -2.578315909031450581e-01 1.794730795545156354e-01
4.048317042046886693e-01 5.694492141051201717e-01 4.593811215244630874e-01
-5.098507828168272749e-01 5.420512496855107720e-01 4.534701438665071360e-01
5.089148243383289083e-01 -5.136189980815456663e-02 2.286221062592025122e-01
-2.954852366286447318e-01 -2.467296349923300824e-01 -6.647302359650842929e-01
5.218823310575518848e-01 -1.887361658026121547e-01 -3.077154194032027390e-01
-3.108481959942874795e-01 2.272378429647137765e-01 4.551517396152339190e-01
-2.712918712067901028e-01 -1.557232751624706424e-01 -7.917906782741380711e-01
3.849202601180198857e-02 2.812312915464718066e-01 3.574718111338369142e-01
6.139575346265109257e-01 -3.548844954665211771e-02 3.103899243065820768e-01
5.248144312867697447e-01 -2.175682727543199468e-01 -1.152185516486197436e-01
-5.136703775996731558e-01 -1.977523874414919558e-01 -1.029372542345415031e-01
-3.818434096051767646e-01 -2.276853699249587470e-01 -2.647403611052027150e-01
7.482948689790522301e-02 -1.061052538780779264e-01 -7.119037395478028385e-01
-4.565567053452495028e-01 -2.261662536768316023e-01 -6.052721054135573597e-01
-3.527453699600473502e-01 -2.349140281208371706e-01 -2.039849980983061972e-02
4.202458137575346697e-01 -2.427396698278301290e-01 -1.909070309322971060e-01
-4.178556511426966824e-01 -1.252395661532111071e-01 -1.740404108685329743e-01
3.684963723710346084e-01 -1.651703432590603260e-01 1.360199990713338580e-01
-3.218017324630067511e-01 7.377574962662090119e-01 5.117555353213231184e-01
-5.506864729567783057e-01 -2.328543193498546493e-01 1.760565241388641067e-01
-5.139724885754820560e-01 -2.139559706659441007e-01 -3.709919383135688586e-01
5.614128097524893057e-01 -2.398503602717222960e-01 1.979249603286697967e-01
-4.882453453531145904e-01 -2.472926493746994969e-01 1.040977352019165914e-01
5.620177449430165950e-01 5.190339998146933365e-01 4.301777953731207305e-01
3.865833876719548257e-01 -1.636467513788751882e-01 1.167736495231708194e-02
-1.263158588115829151e-01 -2.332648995397941238e-01 -1.535467492613740159e-03
2.455125994431888448e-01 -2.120621603553803081e-01 -6.256357317926317663e-01
-6.078129101635925124e-01 -1.689656037670502764e-01 -5.978066124352419131e-01
3.119270114602556987e-01 -1.551378648391596171e-01 1.965591773339645798e-01
3.323513219644643191e-01 1.612179465069557283e-01 3.937026701085950542e-01
-6.401323222813914970e-02 -1.990702447138714415e-01 -7.315565969713879735e-01
1.663846095405036307e-01 -2.574481356886038630e-01 -2.831419728463281382e-01
2.885051093542322434e-02 -1.970235561326389995e-01 2.249154327750499394e-01
-5.104035700782283413e-01 1.123422393182727519e-01 3.043090928696851605e-01
1.810653767232200395e-01 -1.345073608395901121e-01 -5.555541934322182351e-01
6.319417095729341627e-01 -1.459889339320721013e-01 -3.368814150210714953e-01
1.373232543171172548e-01 -1.701656508521272038e-01 -3.673782399281759758e-01
6.053272193101488785e-01 -1.581027986241041738e-01 -5.407310888623335643e-01
-6.228475633663455024e-02 -1.813955215389557174e-01 -3.671339997569931790e-01
1.652401647518490502e-01 7.036792023301884358e-01 4.414577012998920358e-01
-4.212558590910259193e-01 8.716898281689300365e-02 3.331872881161224709e-01
4.994858963324727563e-01 3.345443821683369290e-01 3.734803578093310317e-01
4.174106348685891477e-01 -7.505974738617254838e-02 2.669828086591052307e-01
5.142149684357013584e-01 1.595590011494114613e-01 3.578388079230224728e-01
-6.225721845540971300e-01 -2.095818259248921622e-01 -2.292977968443345449e-01
4.936814495016449977e-01 -2.411876931239406996e-01 -5.854041354959078625e-01
3.977724924006967866e-01 -2.328344306097198113e-01 -4.363748699416862276e-01
3.694089296353708085e-01 -2.633090852630310397e-01 1.072976208089282957e-01
-8.264862920325470597e-02 -2.304517506868712096e-01 -7.786900779781152915e-01
-5.497594458491955605e-01 6.647662419513038490e-01 4.587233361045116586e-01
9.450557191224903675e-02 -1.533957335471904937e-01 -1.161760805772773936e-01
-2.274199015465224738e-01 6.968981642061641835e-02 3.045651016019811363e-01
5.986591199278946673e-01 -2.391307928547792006e-01 -5.312205361488258476e-02
-4.180472921402983988e-01 4.090352381983827224e-01 4.211462180396344235e-01
-2.883597147509697756e-01 -1.893674841949574694e-01 -8.319177952613628080e-02
2.815227984999741917e-01 -2.420286434983994761e-01 -2.378245850978709663e-01
-5.528914133846182244e-01 7.274974904549704260e-03 2.652868477829195548e-01
5.166659816569860730e-01 -1.684656169857835228e-01 -7.499096263482786240e-01
-3.960257829330732782e-01 1.930823479197623094e-01 3.090392189878943263e-01
-2.046091956722538296e-01 5.736482890512875077e-01 4.565593144867691189e-01
-1.123426435770916165e-01 -2.581233466183505687e-01 -3.491399795925245741e-01
-3.755262808177822209e-01 -2.176253236662612500e-01 -5.360287194841883984e-02
-1.533265283723246053e-01 -1.885752799472639740e-01 -7.123236739480831581e-01
5.096843013605949491e-01 4.071445739496178384e-01 3.493523544764172151e-01
7.771410236286774298e-02 -2.171276927473636265e-01 -6.438303563323971579e-01
8.536136662790660967e-02 -8.462849050417753372e-02 2.555773967152427106e-01
4.933515789011085895e-01 -2.146805146546265641e-01 -6.911974085668283474e-02
-4.652057311407441498e-01 -1.485788828951751551e-02 1.989369463343595990e-01
3.588487493583844001e-01 -1.591164536365316240e-01 -1.912682025010770115e-01
-3.870349507045180992e-01 5.766990462216080582e-01 4.764439043284134923e-01
-2.110202049551714587e-01 -2.555635604201274974e-02 2.654211247747587099e-01
-1.686106734127759410e-01 3.014874361232208755e-01 4.158030574026189696e-01
4.300474899135702800e-01 3.780881927814240817e-01 4.235707562174886864e-01
1.643909337847662133e-01 4.723218250852087019e-01 4.446897094184136257e-01
2.432979984446449473e-01 -1.854805456742406045e-01 3.702671857797049104e-02
1.600614887409829989e-01 -1.474841842255192326e-01 -2.034227614511088106e-02
-6.169055709337747384e-01 5.778812342856367579e-01 3.932887488630003592e-01
-4.237056091515905565e-01 -1.747881977936781572e-01 -8.060993033917761563e-01
-5.523044646969476057e-01 -1.578712514809702538e-01 -1.818618832180438349e-01
1.543091086483589780e-01 4.547949470873925704e-02 2.704722232131425708e-01
4.902167461442881735e-01 -2.841463191242217801e-01 8.352166349232981180e-02
2.034644228378573727e-01 -2.735338074222279370e-01 -2.056157252371033639e-01
-5.293225435806347967e-01 -2.407749302656143897e-01 -5.586947597890145056e-01
3.954726618451893938e-02 -1.898686119091156366e-01 -5.263854555156826098e-01
5.975320000998071701e-02 -2.415307153867649881e-01 -3.906310315082607287e-01
-2.299692147394652997e-01 -2.883991343314220579e-01 -4.278289838940387835e-01
-5.776646500907832715e-01 3.077866627614132544e-01 2.924458099528680632e-01
-5.193177860511227761e-01 -9.748489536581159132e-02 2.127021464725577515e-01
-2.294243721233132083e-01 -1.811269208292257404e-01 -4.862404114690803691e-01
-3.585443926787201807e-01 -1.898570435202213691e-01 -6.956079040703053717e-01
2.606358896926436186e-01 -2.159260353349057304e-01 -1.068700879943292881e-01
-3.201101501804765603e-01 -1.708710093475547809e-01 -1.822464773225938861e-01
-1.471674680407558666e-01 -1.780856507389753096e-01 4.337329541210180328e-02
-6.025081408193395660e-01 -2.339041957501644398e-01 -6.730585839762113221e-01
-2.710018613238630025e-01 -2.116562234346162086e-01 -5.912027171652435298e-01
-3.733425414946487386e-01 -1.984477795983351223e-01 5.777183683534358599e-02
-4.289674432075192279e-01 -2.331249666368298279e-01 -6.973119392994815702e-02
-5.706655630869980067e-01 -2.440944662006593394e-02 2.767400604859928670e-01
1.956462191557974684e-01 1.834652641080016244e-01 3.337933042560981556e-01
-2.655297843974304892e-02 -1.957894501829419709e-01 -4.509087706302480347e-01
-5.298545150682711924e-01 1.605285629738881781e-01 3.665987831433320521e-01
-5.286334940566100871e-01 -1.801491017598374211e-01 5.031831088742321628e-02
4.077584282397702653e-01 -1.948075866966691438e-01 -7.271219615316393270e-01
-1.745613816253572259e-01 -2.532718204961100228e-01 -2.069134741370513564e-01
2.692488311336151963e-01 -2.608355418958469008e-01 -1.896930413533983728e-01
-8.925494783709428392e-02 -4.901436043495249056e-02 2.594574439378153907e-01
5.426297078742733926e-02 -2.672109465030013675e-01 -2.230728101160163457e-01
-3.062161259723399365e-01 -1.827094652719074286e-01 2.391941737537911228e-01
-4.027028699872232664e-01 -1.796740105503392415e-01 1.890835575743542996e-01
3.436050232741305610e-02 1.054639785946850650e-01 3.470393397735793695e-01
-4.350583921606631099e-01 -1.559741816049282082e-01 -3.355420754079081469e-01
-3.214930496911310165e-01 5.718100697509971297e-01 4.758061029915664486e-01
-3.472721540487788139e-01 9.627969307487303091e-03 3.097508057145593741e-01
5.883839646150093028e-01 -2.597234114166456775e-01 -3.258974790168268076e-01
5.800697118566725541e-01 5.522000278902884363e-01 4.910200986385826472e-01
-4.026989005441783953e-01 4.126107866286569115e-01 3.716116620558181927e-01
-4.355868100375531182e-01 2.323388935128938848e-01 3.771990059220197700e-01
-4.627515419488195669e-02 -2.331664678166708027e-01 -2.527539861479163319e-01
4.289013563254013839e-01 1.623588775966591236e-01 3.370553964557767568e-01
-3.140967067559339299e-01 -2.254413237159361150e-01 -4.519577640328938384e-01
-2.366436789202206459e-01 -1.818145770821636420e-01 2.725463100113830195e-01
1.202998095001625717e-01 6.229522388872612559e-01 3.804872273842461183e-01
2.145118242462620006e-01 -2.039825615368586198e-01 -7.191910706886492921e-01
-3.678171913908815510e-02 -1.826248658227286881e-01 2.224808774288829227e-01
1.439615938111751814e-01 -1.354186164443314522e-01 -7.125708281673324151e-01
2.284725348015748947e-01 2.993757646999095287e-02 2.324500168941718015e-01
3.207028691774779783e-01 -1.997642316163069642e-01 -4.052191100600208706e-01
-8.004799681305924119e-02 2.314899806388797943e-01 3.541184094784769476e-01
4.332757068521973509e-01 -2.035703502160389478e-01 -7.351403462733776539e-01
-2.780257440013993442e-01 -2.063853394746197056e-01 -2.401143852488188124e-01
2.466900533557133124e-01 -2.728529608069684698e-01 -5.663898189332403632e-01
3.564969034474306242e-01 4.699141810633523653e-01 4.200722841265063789e-01
-2.403757035008379644e-02 -1.040421573208402117e-01 2.326365071165673593e-01
5.487311142333181069e-01 -1.045205727501134496e-01 2.465407089133338780e-01
4.102821679811481936e-01 -1.750515857583669621e-01 -3.552356437371121389e-01
-3.600511825089883766e-01 -5.732358335432390789e-02 2.518637814051922219e-01
5.250191673065304210e-01 5.910918613107192243e-01 4.213143095509114255e-01
-8.450501775688092077e-02 6.190477257737879713e-01 4.621523122874283684e-01
-3.585153735542601083e-01 -1.061620830564862783e-01 -6.193642615236912841e-01
-5.275359642472711164e-01 -1.381430051993745578e-01 1.851235598532975368e-01
1.945919723309861848e-01 -2.598896291007278259e-01 -6.202440523361398839e-01
4.125990156142029242e-01 2.270284786919223308e-01 3.517607400337109391e-01
-4.125934153773518909e-01 3.986473317168501979e-02 2.749361264136821470e-01
6.465656011093735556e-01 3.016392995904159657e-01 3.636504689772819265e-01
-7.187598644413115134e-02 -2.450403396786578758e-01 -7.593159548808877668e-01
-2.219800947945275715e-01 3.423320800741556647e-01 4.059660292205657939e-01
2.947034793454196278e-01 5.794143147379664516e-01 4.691963166219783044e-01
-1.876818934515059600e-01 1.839368160478088710e-01 3.693824024535308781e-01
5.832641654767811712e-01 6.137222576192441492e-01 4.652456455286414494e-01
6.195457595104516546e-01 -1.617171715035810309e-01 1.052147326024027857e-01
-5.091615957448706320e-01 -1.726897950582494956e-01 -6.793789991103106329e-01
-1.894885413709053723e-01 -2.656162909819322349e-01 -7.058340396235708303e-01
-1.790479703531621669e-01 -2.213802149555047505e-01 -4.642540914710790445e-01
3.500877057179617169e-01 -2.458449565762900746e-01 -2.583444709748569101e-01
5.409747347794540140e-01 -2.352206868484293945e-01 -4.908255526566545623e-01
1.876201907212994568e-01 -2.668928513755430831e-01 -4.843721954696195708e-01
-2.192392991167844973e-01 6.580549578471543981e-01 4.802035301228796405e-01
5.406372723006810377e-01 -2.495258583430126909e-01 -8.196722084088976512e-01
-2.042506738647599171e-03 9.962847726294205009e-02 2.640602160281902977e-01
8.305063136730542195e-02 -2.211112242745687240e-01 -7.620854195572950296e-01
1.772045918977634416e-01 -2.733918772778929918e-01 -4.251104999202819090e-02
3.667850855626547668e-01 -1.543276632325898678e-01 -1.275066927647375836e-01
-1.984818261789253746e-01 -1.583485741676926017e-01 -5.692856814849198699e-01
-3.414399194938271820e-01 -2.538052125581032326e-01 -7.041196503754845182e-01
-4.648039018240616160e-01 -2.239624559372545842e-01 -1.465274926543195036e-02
-6.125744673306375565e-02 -1.367952026753453121e-01 -7.705026983728676671e-01
2.923703816499453323e-01 -1.596616499197499872e-01 -5.177377985260841475e-01
4.811516540842238898e-01 -2.777476856487953172e-01 -2.841828723097464954e-02
4.404011493466505889e-01 -1.611972433663683979e-01 3.096414012382902453e-02
-3.208599922645295477e-01 4.933050736725141938e-01 4.439141247106975774e-01
-6.442933488175555112e-01 -1.976236525210268435e-01 -5.470938911898062113e-03
1.114316107037355563e-01 1.085267842344518063e-01 3.202276508917599185e-01
-6.083077237529349590e-01 2.433417538829655835e-01 3.539498015917065810e-01
5.365597798898584792e-01 8.493555191591288522e-02 2.325752663822044097e-01
-5.722428098706445754e-01 -1.936062716138781947e-01 -7.794268525286461857e-01
4.326365687338284971e-02 -2.114812396426182239e-01 -1.428853925961021121e-01
-3.014564546571685266e-01 -1.489571999875801411e-01 -4.890078830481076611e-01
3.742152398445238171e-01 -2.270447948709413688e-01 -8.172453874873696344e-01
-3.114039008698624711e-01 -1.340888720778128096e-01 1.940066031733366780e-01
5.353129441166226687e-01 -1.934625790355132824e-01 -3.738513703455448312e-01
3.752707048677509927e-01 6.013239654344373353e-01 5.251732309712259239e-01
2.691550344006164996e-01 -2.514012152514743526e-01 1.024910292428271863e-01
2.921180499151266874e-01 -2.758922386168219942e-01 -2.937231917935865244e-01
-1.573748608865017592e-02 -1.383485317017398297e-01 -1.085698687326677597e-01
2.041068788852567761e-01 2.055981742940869994e-01 3.367859259847635900e-01
5.724351697835851072e-01 3.794577673444645138e-01 3.873740980160556568e-01
-7.214514432254362508e-02 -2.546611847806107831e-01 7.993905829664998963e-02
2.459548207149539201e-01 1.055080595942602950e-01 3.308300858965780855e-01
6.023213993440810210e-01 4.951869381670201964e-01 4.317727772570447153e-01
-1.309961639436442275e-03 1.452218033214533119e-02 3.133329106522340091e-01
-3.215753967236358868e-01 6.088789529672219425e-01 4.528118602980031326e-01
-4.779737709109516119e-01 6.466331699032179525e-01 4.860943916765688155e-01
1.121015760791103516e-01 3.660290509524812275e-01 4.486282899288587811e-01
4.823122213245087386e-01 5.161988087531222957e-01 4.122538234931084067e-01
1.670940069670272810e-01 -6.320541054395431568e-02 2.074931184836371345e-01
2.222628120305942256e-01 -2.384542478918201813e-01 -8.032522286422493218e-01
5.026768233860750001e-01 -2.530057471948956027e-01 -7.992045442543789235e-01
-2.479846115379738258e-01 -1.587304887996942582e-01 -1.991843786469175426e-01
-4.886680164619405242e-01 -1.936753433466662511e-01 2.774341868303258352e-01
-2.964261755529501996e-01 5.745850018049069030e-01 3.898499164566310848e-01
-3.220973442696302702e-01 1.009880374000844128e-01 2.747309281943273174e-01
4.596839244472901154e-01 4.908075148905605145e-02 2.595949305173014254e-01
2.908639881501411950e-01 4.328328879772180282e-01 4.096121509480664113e-01
3.515123462032009038e-02 -3.864415976009611536e-02 2.160481897265629780e-01
-1.418771509156792066e-01 6.038232345357579245e-01 5.051294230913579986e-01
-4.492051210831319863e-01 1.724309846282421899e-01 3.073243216223843222e-01
-5.484425242880306417e-01 -1.725671757887660140e-01 -7.251978309991334859e-01
-1.614566721594183907e-01 -4.048916967426470503e-02 2.198155482668083249e-01
-8.389018839732227673e-02 5.511122757102757674e-01 4.087065717272686527e-01
7.247596551001209142e-02 -2.670007851305031821e-01 5.026778095314605316e-02
-4.268413159748358776e-01 -2.037622526244045051e-01 -1.829177143910687420e-01
-4.062697852716158908e-01 -2.848257170018649309e-01 -3.131737466229564948e-01
3.586432935618140694e-01 -1.417556155095245352e-01 2.421756960442240925e-01
-3.069041263088934102e-01 4.399557726873416508e-01 3.847652911907544770e-01
1.951831119220323874e-01 -1.769235658838660685e-01 -4.975925650793110999e-01
4.706777629434781840e-01 -5.221269383885097926e-03 3.053307455610798637e-01
-4.267404142128703448e-01 -1.922881608747403770e-01 -5.755675486995708301e-01
5.094585433259413154e-01 -1.312634204475377764e-01 -6.389162985871952305e-01
5.088684019662033098e-01 -2.868903030309342683e-01 -6.154023163161648213e-01
1.198845386349978864e-02 -2.817094979692872370e-01 -5.137995044928131971e-01
3.457768911314058891e-02 -1.677750168559255239e-01 1.074745604136816135e-01
-5.000908928148475319e-01 -2.881719105522599356e-01 -7.574194268891608628e-01
-3.470742602047927061e-01 1.565699585465646082e-01 3.159965944870808396e-01
2.232359308392419806e-01 -1.792935285852056415e-01 -3.765954490621820638e-01
3.854426553932906452e-01 1.527223541422261244e-01 3.207612449212608463e-01
4.938025640473697186e-01 -9.168431709650524952e-02 1.961066418283510804e-01
3.992760848980690391e-01 2.250429168328028917e-01 3.242602715729451246e-01
8.628868766024412607e-02 -1.497941628968780248e-01 -7.401206692724066061e-01
1.676369966340023054e-01 5.439674192040969691e-01 4.234730674257453642e-01
2.469232789676315543e-01 -2.136594978001822021e-01 -3.126705337861383494e-01
-1.837072515224521529e-01 6.295912289248057903e-01 4.275306525785443346e-01
-6.140576472908761962e-01 -2.490201949360895950e-01 -3.827316973529478750e-01
-2.963680592225592658e-01 7.273453180843514679e-03 2.755337053586501272e-01
-5.678273664085742301e-01 4.502005778054626317e-01 4.045907210238617879e-01
1.674344889796077762e-01 -1.295511467979375553e-01 1.377168730173209676e-01
2.874399257648540540e-01 3.345042881670657886e-01 3.737092180719036594e-01
-5.381428737190444567e-01 5.091612051126128691e-01 3.951969767594861183e-01
-4.086983723027856619e-01 5.407751375163679652e-01 4.013453687994779084e-01
-2.376226090170280303e-02 6.534152647808322278e-01 4.316308970613724205e-01
3.964428700675280692e-03 2.930104369620734062e-01 3.813395781409980589e-01
1.148041337295810649e-01 1.119177246232739772e-02 3.120977996493682349e-01
3.916962388926985561e-01 3.617077700219596958e-01 3.767803627971301195e-01
3.360051955241082910e-01 2.782731652522578147e-01 3.414895315346554439e-01
-1.095247586160265213e-01 -2.162697945703437319e-03 2.831332234487461963e-01
1.318217390046313164e-01 4.313260321754421311e-01 3.818892348139231174e-01
1.820851819911654679e-01 5.769373132320493314e-02 2.580232492440228675e-01
-6.396849447089899554e-01 -2.150233745930880958e-01 -3.159580062286181379e-01
-4.509236095588198268e-02 1.968406118701863383e-01 2.563291117886442039e-01
3.561389374518014184e-01 4.388496138821017245e-02 2.830279215399444936e-01
3.914507854759016192e-01 -6.571959169591047589e-02 2.355608271348976768e-01
-6.705309891126651767e-01 -2.597297601455487159e-01 -5.953428500042254878e-01
-6.756972024433688384e-02 -1.726573999674824722e-01 -6.310604534816929290e-01
-3.830755101020415498e-01 -1.817069587225011718e-01 -1.910943253044091461e-01
5.831136919820039122e-01 -2.080100378283698259e-01 -5.902451801728211267e-01
-1.937625011267364028e-01 -1.555552600689359133e-01 -9.603715919734950868e-02
-5.208796449547787796e-03 -1.195809027503896005e-01 -7.095177614862682169e-01
-2.602091952791732998e-01 -2.237145220008527058e-01 -7.537205719797286652e-02
4.611241566304196127e-01 -1.191706515590512383e-01 -1.372903736800336338e-01
-4.335409874243776884e-01 -2.437549041443413667e-01 -4.312503830304371122e-01
-5.212375052548527954e-01 -1.419261803313003334e-01 -5.893612149806773948e-01
-2.219958988690746982e-01 -2.561619928862918227e-01 6.248388798260465921e-02
-2.969716058024024496e-01 -1.815202075829833450e-01 -6.260295598220276814e-01
4.435167582626127758e-01 -1.553271525281783028e-01 -3.688266399961374065e-01
-5.617910233577487755e-01 5.807430073504801782e-02 2.364316294213777980e-01
-5.293177921309800693e-01 5.942486779845218559e-01 4.804163010523334054e-01
-1.736730587387660119e-01 -2.738379113840380130e-01 1.504824226772187301e-01
-2.218507651775046274e-01 -2.436925311482810164e-01 2.033371838169891754e-01
4.679753777301491335e-01 -2.157382598482842917e-01 1.093039149287241135e-01
-9.397977801114681951e-02 -1.724892531006793073e-01 8.015069231635821301e-03
-5.987579463073667840e-01 -1.413656969491026982e-01 -1.431312161944962580e-01
1.487857091858373060e-01 -1.606507324402046688e-01 -4.424296158450924388e-01
-1.486716224019942190e-01 -1.550613115907878148e-01 1.263730804584214940e-02
6.046968416021950565e-01 -2.174541085528707562e-01 4.678614663931671136e-02
6.373176729826639519e-01 -2.027700525745856630e-01 -3.946206336694567107e-01
-4.588586538263591530e-01 -1.249235881363740808e-01 -2.217496014754742895e-01
-4.602686992743043604e-01 5.749095131518041635e-01 4.614989893469433890e-01
-5.334203252948185314e-01 -2.293113775210011140e-01 -8.226470751053877040e-02
4.906018706217178948e-01 -2.840366009923270818e-01 -2.124226941717511363e-01
-7.950463897430513904e-02 -2.071167594225707953e-01 -4.534403415702072948e-01
-5.417065422250345874e-02 -1.572872781553301125e-01 -2.598977318929990288e-01
3.295886719099938023e-01 -1.643921481992210165e-01 -5.934047857428654815e-01
5.327468982904723926e-01 -2.323094728562103695e-01 -5.800175815339070340e-02
3.008427791665297876e-02 -2.823012536170063091e-01 -6.855841366573329765e-01
-4.978543581759218295e-01 -2.421708240008626778e-01 2.264716583740596090e-02
1.355492358940916242e-01 -2.525699389395187344e-01 4.706000590793531918e-02
-4.248651741087361988e-01 -2.018799155624868558e-01 -7.014061035766165908e-01
-3.855926818129305489e-01 -2.382214947843663555e-01 1.245075055644420253e-01
1.344182426191944668e-01 -2.554219344575934802e-01 -7.798755583846289641e-01
3.960296984704105017e-02 6.154255528446910262e-01 4.777042858435083250e-01
2.941395170558759320e-01 -1.063311028402039726e-01 2.240198073191607964e-01
4.428318077882912318e-01 -1.666083729990819606e-01 2.319308808895527152e-01
2.178716260696391127e-01 4.065609444869375255e-01 4.146466169113501854e-01
-2.789195616825899671e-01 3.903728114954863049e-02 1.946863353369366889e-01
4.786515142402790746e-01 -1.782593826189064479e-01 -5.376253660665868406e-01
5.895312098312447402e-01 -1.942097493086218651e-01 -3.914254125358271885e-01
3.259896702701920931e-03 1.635619707043227677e-01 3.245329971513521983e-01
5.092868124601637181e-01 -2.139421913407549281e-01 7.457122194502227575e-02
1.443013016489874678e-01 -1.604177360652538076e-01 -3.158497257206698272e-01
-3.957531906312046766e-01 3.371415295072096030e-01 4.051453521658306967e-01
-2.236167237014923537e-01 1.537027487960602734e-01 3.020538607049512159e-01
3.863010880249037049e-01 -2.695362351172693183e-01 3.641143897126711271e-02
-2.231446978694437144e-01 -2.250481096631823663e-01 -3.385011675728300667e-02
-8.539963008771704611e-02 -2.586947682111117031e-01 -7.125534807635597323e-01
2.876482470361872990e-01 -2.472808587356695731e-01 -4.564491871425046532e-01
-7.841243071849113289e-02 -1.946410915792052831e-01 -2.969214868920325712e-01
1.116785756014343212e-01 -2.416515406717044123e-01 -5.114342015166922772e-01
-4.752927616894634943e-01 5.112476986539086221e-01 4.766352435314298308e-01
5.431431413089722327e-01 -8.949676885163505152e-03 2.574164074701511540e-01
4.845580040709904779e-01 5.069718736530277603e-01 4.282129782001246610e-01
3.854875391253763106e-01 -1.803103340633630258e-01 -2.655497026766466886e-02
6.899827237623709641e-03 -1.670099492754544834e-01 -7.953729033990374064e-02
1.546129369839364665e-01 -1.205955867539656723e-01 -1.337387902237393081e-02
4.925104361318254353e-01 6.110718477711289953e-01 4.972332997222237427e-01
2.731906215038531482e-01 5.934183271634307921e-01 4.319679677881357871e-01
-5.390271766567806822e-01 3.674876537483244832e-01 4.652132541270955768e-01
4.326580061434606161e-01 2.851343547328836214e-01 4.085777529280948950e-01
-4.816007653806756439e-01 3.932495991869701668e-01 3.814523004196956890e-01
-4.885270933534420212e-01 3.279911250033434866e-01 3.583136347067695793e-01
2.052786838036357586e-01 -1.173400432478885341e-01 2.558890857964338239e-01
5.526515348726315779e-02 5.110023178933608134e-01 4.289052199303745039e-01
-1.387057954719483621e-01 -1.369871612492927493e-01 2.596419011369107688e-01
-1.716476042513950806e-02 -1.711467378744450651e-01 1.466340268015261239e-01
4.738240718822480102e-01 -1.646908533570909383e-01 -3.053097639532004193e-01
4.010748689767591468e-01 -1.188559584995216162e-01 1.814130833454643821e-01
1.371216134163918965e-01 6.599147829346541094e-01 4.870474419148550504e-01
-2.651765357030401171e-01 -9.971958433157276924e-02 2.342275915603932168e-01
5.981203658577316506e-01 7.868830151467309797e-02 2.952958828420049198e-01
-1.116421968342646287e-01 -1.854431718675602081e-01 -2.198245628703622834e-01
-8.345368011770899069e-03 4.777175327515763570e-01 4.276207808777557351e-01
-1.123472933935562024e-01 5.378203942401300619e-01 4.464458341904924965e-01
-1.579971507485301019e-01 -1.574127236021569676e-01 -7.313153071348774681e-01
-4.537122734155668580e-02 3.649359021017574700e-01 3.678704626009806633e-01
-1.461372028121535604e-01 4.326846278501189080e-01 4.507105803918701747e-01
-3.425918944386983633e-01 -1.606827568520909910e-01 -2.434332920795367616e-01
6.091900519251991497e-01 4.862958141661002376e-01 3.522116577759173972e-01
3.699536669870098216e-01 4.616802223796812044e-01 5.124675133640023139e-01
2.084183864896207439e-01 -3.794103351859694218e-02 2.689605095689845959e-01
5.394088818338317326e-01 -1.961166936185122500e-01 -6.036845122613047204e-02
2.514661462527495450e-01 -1.809329472656269477e-01 2.038557377271034976e-01
1.368841780363516947e-01 4.986516921988100592e-01 4.269232280307874716e-01
2.170050287169404957e-01 -2.483831405905624623e-01 2.179939707407991256e-01
5.279500465761333139e-01 -2.236969501718169551e-01 -3.544268880360864071e-01
6.114937033716385528e-01 -2.073839554342285507e-01 -6.854098654566191939e-01
5.996414024045775698e-02 -2.072658507556313923e-01 -3.289660462493596005e-01
-4.548691844713674270e-01 -4.860687331793651922e-02 2.483474872398850064e-01
4.296455876633051285e-01 -2.507043165245053662e-01 -4.976692877844978158e-01
-7.717878887312090708e-02 -7.431783322621128562e-03 2.505082635276318359e-01
-1.083926315411792574e-01 -1.254686899156446100e-01 -4.418667449112774204e-01
-2.091124936569489223e-01 -1.902929889028886490e-01 -8.121968691488942738e-02
-1.531580538347674658e-01 -1.416966570659355384e-01 -4.480277530183995882e-01
-5.698442710293176727e-01 -1.426034891779494607e-01 -6.685240928816249539e-02
-2.451903650884402486e-01 -2.050304558790883858e-01 -1.584083690269518785e-01
-5.731705944243203898e-01 1.880554477803413060e-01 3.531593604666246611e-01
-1.117118292469681806e-01 -2.238072129778486963e-01 -5.333448767592295914e-01
-1.937993743809524050e-01 6.162258035457491845e-01 4.628140471947345680e-01
1.721494637212212658e-02 4.781225898723551748e-01 3.505132809392584869e-01
9.863122638885567228e-02 -1.477400050571806012e-01 -1.627648621233054871e-01
2.779742292311844221e-01 4.608691953027725663e-02 3.120167453661391033e-01
-1.526095774821136508e-01 3.413976898937879922e-01 3.520749430608908770e-01
4.921029814851992645e-01 1.791070865901673581e-01 3.250252749619073622e-01
-3.052305696076469399e-01 8.154528479071219971e-02 2.942469749143188928e-01
-3.483333783513321014e-01 -1.923627560785875767e-01 -7.400635239193654735e-01
-2.654818191300563623e-01 -1.986304068665797340e-01 5.017358806823593587e-02
-1.884381562080174599e-01 3.050266470767686866e-01 3.988042933265954493e-01
-2.328505610359126177e-01 -1.937899793196328213e-01 -6.222901916568341907e-01
1.362105818570180094e-01 -2.755388077160663141e-01 -1.205251886729958866e-01
-4.664856148714740386e-03 -2.525806630779862116e-01 -2.079483041691999184e-02
-1.095526032470551664e-01 -1.975590502268144144e-01 -7.154460187633335799e-01
5.475868771737372187e-01 -2.459601267177411454e-01 2.439818342847351051e-01
5.177479386110862836e-02 -2.657439300124261883e-01 -7.696051825810645841e-02
2.639916041127282065e-01 -2.243401743338407639e-01 -5.433271452860419792e-01
5.687997658690803204e-01 -1.558804434755186596e-01 -2.121980011640016983e-01
-3.915550053836026612e-01 -2.194192806541796770e-01 2.066979463318016075e-01
2.425704057528569046e-01 4.795513779197932980e-01 4.182460996033382505e-01
-4.484862334669449391e-01 1.453526894236722711e-01 2.880892388043201913e-01
2.360253652514097411e-01 -1.916079656011198673e-01 -7.622421046032618053e-01
4.115549796655855741e-01 -1.598860285223303590e-01 -5.560111651554836554e-01
4.171429097904026384e-01 -2.508311440437214213e-01 -3.306918432871711055e-01
4.050615865495756918e-01 -1.960830743945244370e-01 -6.494495063506989796e-01
-5.088716916246768251e-01 -2.806717248432138434e-01 -3.911714339687487607e-01
-4.085777284306096324e-01 -2.770851358094525985e-01 -5.858544033048801447e-01
5.972707456027428474e-01 2.928332672896442057e-01 3.584799201104419408e-01
5.827234350485419601e-01 -1.506759108466135533e-01 -5.264467466191182776e-01
-3.245442166365805070e-01 -1.852499198354285170e-01 -2.956289424251727915e-01
-4.724696900652866627e-01 -8.590555263587887347e-02 1.550275680232565123e-01
8.432136202007878278e-02 1.924025027445657177e-01 3.118784000614282514e-01
5.508842668031702638e-01 1.643040730196135002e-01 3.281552250456421516e-01
-3.161213340062731247e-01 -1.162509411655156255e-01 2.771556503821285267e-01
-7.315528267469106893e-02 -1.122463120743130982e-01 1.976790861333471705e-01
-7.397018767035673514e-02 4.269036494358809941e-01 4.251354135890936803e-01
1.627178390882189074e-01 5.587007341523505533e-01 4.902751480397627426e-01
5.555877547761409740e-01 5.953425176385310769e-01 4.732003853780925029e-01
3.134255138660529960e-01 2.173846652910203237e-01 3.169546447171923131e-01
-5.236536086302796544e-01 -1.309802451278438973e-01 -8.570601756579114550e-02
5.803010119084790475e-01 -1.269003349058370755e-01 -7.856268516884020725e-01
7.245216039553287191e-02 -1.189414653069373329e-01 -5.381909782852682955e-01
-6.038370239008784557e-01 -2.213482960667207400e-01 2.051814871495369896e-01
3.710066968587032443e-01 -2.096357850297126402e-01 -2.894125212342946174e-01
-3.846088700168448504e-01 4.762395258491997629e-01 4.255568198679768321e-01
4.304477866711907685e-01 -2.766245549397476355e-01 1.595343973842764385e-01
1.604849071165625751e-01 2.726422301692951744e-01 3.166547106316401905e-01
5.641519924608889847e-01 1.664295446481122709e-01 2.574557911331388782e-01
2.122371575783078557e-01 -2.461030715164615468e-01 -3.157940033764167209e-01
-4.033242127132690563e-02 -2.758763261306749204e-01 -6.738762438260599286e-01
5.343233009207252193e-01 -2.440611230040442559e-01 -2.357040928258219425e-01
-5.031931751998725000e-02 -2.373689851549763419e-01 -1.886827649607279722e-01
-6.014005934735254799e-01 1.404966960604579762e-01 3.037711705397717621e-01
2.037665065924651742e-01 3.066377068979920795e-01 3.062177998655980504e-01
3.898575340587068921e-02 -6.096208127616458555e-02 2.154830350697134189e-01
-2.682836800807161803e-01 -8.510777239137123917e-02 2.284150246106579352e-01
2.375443397466389384e-01 5.248940044694090368e-01 4.420722296765990378e-01
-4.477808146031961867e-01 1.346445778553919184e-02 2.874440701560797007e-01
-3.826186441581306830e-01 -9.081612453856752198e-02 3.040945538950753924e-02
-2.911872585642356071e-01 -2.069930289036955584e-01 1.355152294952896574e-01
-3.649886326637329925e-01 -1.061128054741652671e-01 2.454993767348119527e-01
-4.076097791558970229e-01 7.362115975488360553e-02 3.201083988333931485e-01
-2.181389241627650355e-01 3.120287880951151949e-01 3.736933401914183106e-01
-2.352903688803359705e-01 3.896402061196385103e-01 4.542455533819883540e-01
-1.786400578640505166e-01 1.015421137478786789e-01 3.128450332371082165e-01
2.446377061687152743e-01 -1.731295767288715814e-01 -1.065117015232961012e-01
-4.036840944687499211e-01 -1.960978575194611551e-01 -4.692037376886742939e-02
-3.196242301557090104e-01 4.406245682644774342e-01 4.259698417387425273e-01
-3.274458783594912971e-03 -1.824515015780250327e-01 -3.158620991980418125e-01
-4.648075772735233979e-01 3.199248729361950372e-01 4.193463610377310968e-01
-6.042153162571740621e-01 -1.919727202214013551e-01 -4.107137408796083800e-01
5.932813824431406591e-01 -6.634453596021852584e-02 2.018774289829675384e-01
-4.830791740690230096e-01 -1.905965729513913742e-01 1.797471836539790702e-01
2.535650517714537755e-01 2.050649324100646265e-01 3.719245510417748535e-01
-6.310760189551084531e-02 3.384588654703777344e-01 3.465077017213847310e-01
-5.367002402759733087e-02 -1.835997865194572420e-01 4.393377309363340200e-02
4.792165332060290828e-01 -1.486875268972500386e-01 2.438722974888818951e-01
-5.004464323673727399e-01 4.888317790287817211e-01 4.226740608986802594e-01
-3.651810044761368279e-01 -1.127398364725694935e-01 -7.453441246596640424e-01
4.897484093790279158e-01 -2.909656564075637220e-01 -2.582293861998924411e-01
-4.315035232317838976e-02 -2.628908624982563280e-01 -3.502227185760606876e-01
5.760518730249921671e-01 -2.268269014473139888e-01 1.565684949205105592e-01
3.489668782486899934e-01 3.389710153206626497e-01 3.555846460404589182e-01
-2.515224905920531717e-01 -1.960760277663036732e-01 -2.949474874346114106e-01
-3.965719007303440957e-01 -2.295000548310995037e-01 -4.653351015082273223e-01
-2.060498372589449623e-01 -2.138592776426910536e-01 -7.710868946023353709e-01
-5.294949592018904222e-02 4.660650058688270425e-02 2.572326783021395280e-01
2.980381081415901801e-02 -1.323565308120898398e-01 -4.725813918374957567e-01
-3.345741130763629778e-01 -2.776472042908249560e-01 5.484972289096000028e-03
-4.992448069817724265e-01 -2.249077938288206180e-01 -2.100832743283202186e-01
-6.138711769931604056e-02 -1.787331093413150329e-01 -5.756572483565813858e-01
-4.029082930648081873e-01 -2.884258724260585494e-01 -4.524103891514338893e-02
1.597211351248770464e-02 -2.462505743070579067e-01 -2.284244434409783697e-01
4.735725916483808917e-01 -2.243856438288328592e-01 -4.656451777159310579e-01
2.562834151548188943e-01 -2.302502586869926982e-01 -6.354321993954464842e-01
-3.281689295547657870e-01 -2.695465929142580874e-01 -3.827138959482608849e-01
-4.407363909854967732e-01 -2.167891489430356367e-01 -4.885012132187853129e-01
-1.875401842328964230e-01 -2.512487092334605987e-01 -2.914279487625917597e-01
-1.213709577818407881e-01 -2.867812931038892232e-01 3.305252301516359292e-02
2.125750207354328292e-01 -2.332850217469610576e-01 -6.906346756011650934e-01
2.869882070271639329e-01 -2.324596404140821804e-01 -7.341054358985819039e-01
-1.438051184768666668e-01 -2.197321454531246943e-01 -1.134430012609535382e-01
-4.880188896706795232e-01 -6.703953447040399138e-02 2.754188513889810341e-01
-2.467514928040298594e-01 4.636676190981966483e-01 4.356439459209442422e-01
-4.231113071379349888e-01 -2.466322393149091297e-01 -7.763222981664569255e-01
-5.061792940129257179e-01 6.139207685379470814e-01 4.561449754594855688e-01
1.647537284301097971e-01 -1.673417526439046898e-01 2.248966976252649574e-01
-3.125286373485408609e-01 1.884755966970984298e-04 2.817094892197480882e-01
-2.155016357563759588e-01 -2.449406536094319020e-01 -8.044913881699774505e-01
-3.263359096552337912e-01 -1.023215631998942304e-01 -4.181885580952799941e-01
2.751690209791393116e-01 -1.976802346395453713e-01 -5.063360532418763604e-01
-5.540770260782227341e-01 4.286121499242264571e-02 2.756728127188745048e-01
-9.757291583670016366e-03 -2.042431454164058413e-01 -7.464774550687736099e-01
-4.233245865991053236e-01 -1.469678938541399693e-01 2.611854627235696835e-01
4.886667262281317869e-01 -1.383965689971260182e-01 -5.586472376914102256e-01
