ply
format ascii 1.0
element vertex 625
property float x
property float y
property float z
end_header
3.867862177537749746e-01 6.718851184442640179e-01 3.945991553692402287e-01
4.695333778465082264e-01 -1.874588051342577222e-01 -7.328631016216513583e-02
-6.266962158170291675e-01 -2.209560751652272781e-01 -8.525080816899577307e-01
-6.030801015425070188e-01 2.957586572158348304e-01 3.975336429802320826e-01
-1.382017457008686834e-01 -1.604888392539065012e-01 -1.447606118648750162e-01
-1.287606168624020886e-01 3.568387450940660455e-01 3.423389351723196139e-01
-5.721136011953120715e-01 2.102069027270968282e-01 3.703979676108095087e-01
4.480954674649064579e-03 5.851904231854878624e-01 4.836206131406100006e-01
1.097231749825047509e-01 3.661000046037601874e-01 3.807209410675178596e-01
9.471463833810106481e-02 -2.374052487323424776e-01 1.483274167664222487e-01
-3.020457657687870001e-01 -1.258372641661988367e-01 2.757365814942104865e-01
-1.073454355761873924e-01 -2.701844245984016957e-01 2.019649541564784434e-01
2.358319030607768374e-01 5.055761945433590032e-01 3.642221158062859399e-01
3.659445044437187877e-01 -1.819849764176710294e-01 -5.702560016961470968e-01
-3.744979049138023597e-01 -6.108611000024023741e-02 -5.912404629468721584e-01
1.744803862387848958e-01 1.563502539845484929e-01 3.307555217118174906e-01
-3.719047563377934629e-01 -1.541028642619065581e-01 -2.960829293506499482e-01
1.964180970708710172e-01 -1.902482612396399486e-01 1.205477504225883068e-01
-2.958951371435815103e-01 -1.728889855016381427e-01 -4.705701699061063947e-01
-5.788289210934953744e-01 -5.631664660784768683e-02 2.313180405894136316e-01
-4.336307377432548904e-01 -8.496027689178109465e-02 1.133263085678933579e-01
-2.731124830376205348e-01 -2.914377756445811762e-01 -1.460778017179947819e-01
2.555312322910330974e-02 -2.296394473326648089e-01 1.372216654375447153e-01
-1.794228592680951473e-01 -2.887913795773422443e-01 -6.572421897461916407e-02
3.126583137770709842e-01 3.250879768225962141e-01 4.277338182084476914e-01
-5.516096748251793080e-01 3.473056574368110772e-01 2.958378309884123758e-01
-3.163624291591129317e-02 -1.262237013448805345e-01 -6.069617431854520406e-01
2.902040533687033630e-02 3.379089816437073068e-01 3.299319046090015695e-01
2.448801234999911924e-01 1.347471702505372362e-02 3.832695044013168517e-01
5.824918414676315548e-01 1.788640775911003455e-01 3.077137613132592264e-01
-1.201120619095521064e-01 -1.621461441828190020e-01 1.745242379808242261e-01
-6.002770345214798742e-02 -1.517798889589965505e-01 -2.792439732197790070e-01
5.235615134360152023e-01 5.364761377842768020e-02 2.155773979993237943e-01
1.470552701018467134e-01 -2.016130221185780114e-01 -6.531147606331074718e-01
6.581965466975175927e-01 -2.897730830083710685e-01 -4.752451983455282525e-01
4.461772297972199097e-01 -1.629133647026244081e-01 -4.189526775881518006e-01
2.569266668953936184e-01 -1.147474041990459437e-01 1.253738810955253025e-01
-4.800293986316370720e-01 -1.766076790122560192e-01 -6.468668588517539897e-01
-6.276120638314759415e-01 -2.176688051257939238e-01 -3.793524406927630821e-01
1.049061497470520077e-01 1.366759512791091424e-01 3.984007460256461242e-01
-1.416816246907883214e-01 -1.789148158417676049e-01 1.095224392062696950e-01
1.206865238423907721e-01 -2.280849446786689105e-01 2.132356793283783358e-01
9.099969035442449783e-02 -2.561710782449400647e-01 -5.678002393527995517e-01
3.616998933150655238e-01 -1.527519590576408293e-01 -3.594130515807323345e-01
2.664450876616999420e-01 -2.450503863547154326e-01 -6.960514880623109857e-01
6.142760479163500431e-01 -1.450516967186146478e-01 -6.584137177518895045e-01
1.043092462708369167e-02 3.005380526956663023e-01 3.393396943296507762e-01
9.377995746555245482e-02 -1.693300276042538355e-01 2.754056851345741685e-03
-1.408908703804988005e-01 9.403300188368385326e-02 3.205502653936269097e-01
-5.274511644551177492e-01 -9.030023771544119782e-02 1.530683963972321315e-01
-9.214735098695762960e-02 -2.674608830972786122e-01 -1.799525573275162771e-01
-3.870374580804775144e-01 -2.623825082400066400e-01 -6.908240241066597731e-01
6.227023893835701429e-01 -2.140808292479074448e-01 7.603490687975633655e-02
1.172203901365929390e-01 -1.602118514348406242e-01 -7.067307702650175161e-01
-4.598830363691502332e-01 -1.615264400074880868e-01 -4.486156646386203484e-01
2.440934268633729864e-01 -1.549502402833740078e-01 7.977253728908262342e-02
-2.805654650895605395e-01 -1.385636224050761367e-01 -8.045377390141916774e-02
-3.049177437334739116e-01 -2.671273925486644107e-01 1.492342844144530223e-01
1.728996528488051243e-01 -2.299507567521529572e-01 -2.408742570144338790e-01
5.126518473931036546e-01 2.603076939627173569e-01 4.187422673745230250e-01
4.039615580817145224e-01 -1.746862993178663510e-03 2.342543685180534796e-01
-5.667551419138893154e-01 -2.470812685580574541e-01 -2.431308663280771221e-01
3.753563437094158961e-01 -2.923678040382406418e-01 3.192720691658601506e-03
8.719131499854659850e-02 -1.864416849090752559e-01 -4.595072073836906634e-01
3.621082794623320389e-01 -1.853641333410036007e-01 -6.608602644437305829e-01
3.820807335399664662e-01 -2.649640339405409106e-01 -5.644621511518047585e-01
5.097092857645572073e-01 -1.628649116345095849e-01 -1.761450156398064459e-01
-4.308065995056261643e-01 -2.952866924120189918e-01 -3.182438278935251219e-01
9.159052136316904458e-02 -1.558549549433357884e-01 -4.675739036821223715e-01
-2.710325379808954382e-01 -2.792644450576144410e-01 -3.760003998446644902e-01
-1.961279529714680947e-01 -1.397237244821620261e-01 -3.321520171152326784e-01
-5.659354493512339795e-02 1.240900703352490475e-01 3.185107425974692541e-01
6.274825040246043706e-01 4.054042714876591735e-01 4.380135709650626596e-01
-5.813570682403405021e-01 -1.737820565920447091e-01 -5.092517437087069609e-01
1.169750600777454685e-01 -8.241315519946816603e-02 7.200001766432229111e-02
-5.379931384593451549e-01 -1.965391474033670316e-01 -5.170103621629460466e-01
-5.976575200733095228e-01 -1.769643417008387731e-01 -1.692276045327822248e-02
-1.816027141666815004e-02 4.708793567893000409e-01 4.984520233627344199e-01
4.942247518746448742e-01 -2.599296914694020355e-01 -2.588854056923520774e-01
-2.643962830002034581e-01 -1.713927790194122447e-01 -2.085610707682071241e-01
-1.731059655079889847e-01 4.276655099186234543e-01 4.555959475821206861e-01
-3.739895306547434961e-01 -2.009434494914736913e-01 1.881941516071476972e-01
3.190450362335545686e-01 5.876999545460204200e-01 4.502240431771232787e-01
-4.731002604149894264e-01 5.550140074649079214e-01 4.268301079554590038e-01
5.036154223167832455e-01 -1.153648977413173626e-01 1.444902570461761848e-01
-3.321210184709170177e-01 -2.708320086639675051e-01 -7.896657024089839272e-01
5.190848391309746956e-01 -2.127621484165306831e-01 -2.059480730050276542e-01
-3.039286918409593308e-01 1.951868915957711281e-01 4.418826089633356990e-01
-2.472300810439655716e-01 -1.389227438787744018e-01 -8.211078014685966320e-01
5.812857509715234350e-02 2.873865973123192474e-01 2.683248362695882516e-01
6.160964938288095993e-01 -2.631540224027001384e-02 3.472344000598526770e-01
4.652322135611491882e-01 -2.312534327597225436e-01 -1.521855504195797903e-01
-4.951603625946519593e-01 -2.363285049726198683e-01 -6.036676802648282408e-02
-3.972861504216688155e-01 -2.984949473494436512e-01 -2.792168865280786894e-01
5.301744204917624437e-02 -1.601000705717863237e-01 -6.993181111470948563e-01
-4.772430702835583349e-01 -2.664437319560367667e-01 -6.551158958770604279e-01
-3.113324654397585656e-01 -2.288614554892064723e-01 -3.108059740699777723e-02
3.593361826195179409e-01 -3.311533196046313465e-01 -1.134222553327051686e-01
-4.656528756067253028e-01 -3.016887050225456335e-01 -2.037572561815935157e-01
4.119915820398697415e-01 -2.265153797117651358e-01 1.301889197386945918e-01
-3.262134468724788849e-01 6.740183302635924800e-01 4.538669515070873905e-01
-6.062290558798926199e-01 -2.380748249085122559e-01 1.797054133182290903e-01
-5.485824911111042423e-01 -1.860833075272122772e-01 -3.709351290545218616e-01
4.894466329426724882e-01 -2.335768752650184410e-01 1.843191165266667153e-01
-5.002802805682852183e-01 -2.345521084412729995e-01 1.372686721524570275e-01
5.066242164965104600e-01 5.043077203343813153e-01 4.180647041536054154e-01
3.936524703646840928e-01 -1.856350842634135467e-01 -7.935825450812364346e-02
-1.441550415954967745e-01 -2.818963556581988716e-01 1.363582965341360309e-02
2.502958163371793443e-01 -2.474323470634229305e-01 -7.137890729595878225e-01
-5.563877467349069850e-01 -1.895960818480718069e-01 -5.948255659139659590e-01
3.078405354858452792e-01 -2.117892550111352967e-01 2.092189851584204396e-01
3.430649970826014084e-01 2.576316359012897905e-01 4.241419994853246056e-01
-1.753099683742867509e-01 -1.434084744566155312e-01 -6.570752638388454026e-01
1.601806523716310382e-01 -2.228283543231877051e-01 -2.620406314958880212e-01
-7.014008229616723600e-03 -2.558694027664838444e-01 2.223951147711420717e-01
-5.057983145555071669e-01 6.476462072161856542e-02 2.725482120504958417e-01
1.613230097036821853e-01 -1.598838450101582875e-01 -5.158634271952039496e-01
5.444444151665623899e-01 -1.836697042860321039e-01 -2.290010040778258649e-01
1.491161025594689438e-01 -1.237682031394908011e-01 -2.247358391666239019e-01
6.554180808108773792e-01 -1.611433894650145249e-01 -5.865958669017972138e-01
-1.185227890757825919e-01 -2.328047002982660540e-01 -3.715016153764256202e-01
1.894325105285227795e-01 5.710379744960795145e-01 4.566165053841332311e-01
-4.710308640048433415e-01 4.901523606795171739e-02 3.422984434414558241e-01
4.896943383898157420e-01 4.264487669809238213e-01 3.096020320406943638e-01
4.478361861707583769e-01 -4.616746981121097604e-02 3.509248489282000283e-01
5.873337990415997689e-01 1.794060820268756906e-01 3.732801934959733559e-01
-5.604697414959677326e-01 -2.352325780991669224e-01 -2.711135345766984006e-01
4.719652525595880443e-01 -3.539537537191504435e-01 -5.762056087285015726e-01
5.085681368201927510e-01 -1.807392679630975829e-01 -4.405116535830225222e-01
3.300293524026737813e-01 -2.059998679091078755e-01 8.344412071521023488e-02
-7.348523092557299186e-02 -3.523002448336278736e-01 -7.550444746116425909e-01
-4.709055022932546741e-01 6.542784594848423119e-01 3.707399908385593523e-01
9.598489379716723668e-02 -2.397780601669918243e-01 -1.471493888854047971e-01
-2.913912476739508040e-01 5.632126997135503133e-02 2.854753101188161057e-01
5.817788393933138735e-01 -3.537629418071527865e-01 -1.180489902124473162e-01
-4.442142344035326929e-01 3.999652839582419905e-01 3.722356805044186867e-01
-3.444082136885281975e-01 -1.449170419164024504e-01 -8.700230624568069948e-02
2.381543781206585386e-01 -1.817576348400304909e-01 -1.796144316923840023e-01
-5.961457206899115624e-01 -2.378794371932302365e-02 2.388712575400630256e-01
5.245825283100057357e-01 -1.372642588406911002e-01 -6.838331903886335494e-01
-4.292926827174861071e-01 1.529659097073585161e-01 3.482650395723955739e-01
-2.242202334486676774e-01 5.353538969647834156e-01 4.092133937449549674e-01
-8.843318849888501254e-02 -3.896836693175523836e-01 -3.715301486214880322e-01
-3.452936179632908331e-01 -2.517952755575704193e-01 -5.001241669309700044e-02
-1.112193837822350040e-01 -2.035453369459813977e-01 -7.701597787156330144e-01
3.410452813353697099e-01 3.761850308197843828e-01 3.975533075658158055e-01
3.529490121741328534e-02 -3.124243550961076643e-01 -6.973545077822832505e-01
6.637402268940953420e-02 1.306096338567652726e-03 2.231629144967482992e-01
5.569332650138106855e-01 -2.017681265626800613e-01 -1.144619397739153333e-01
-5.087620900327137763e-01 -7.142913308330864353e-02 2.357533676805886047e-01
3.044773532267745497e-01 -1.836425544384884534e-01 -1.897820343209075111e-01
-3.857285597588945292e-01 6.078670090189399744e-01 5.867993740969017491e-01
-2.532908195717873401e-01 7.271278349605919678e-03 2.967388498051438117e-01
-2.286077956678524148e-01 1.974816098798900244e-01 3.804500565556865332e-01
4.421654465416892110e-01 3.488818433261025587e-01 3.783759797192081109e-01
1.257223732435296115e-01 4.910174568758721714e-01 4.067723837931277453e-01
2.450584287102776926e-01 -1.712071599490014584e-01 5.861332023847244665e-02
2.018416934326551782e-01 -2.194405660738131258e-01 -1.683122390226458875e-02
-7.249649882841153747e-01 4.951391971968588379e-01 4.638987560965526225e-01
-4.924463243470841300e-01 -7.882408577555270746e-02 -8.784623979977088659e-01
-6.517936006452966780e-01 -2.166435384007265874e-01 -1.556395065694771707e-01
2.259989286254900087e-01 2.334922971421529367e-02 2.716845878779485801e-01
4.665782602092126696e-01 -2.394748657489513821e-01 9.032724923034399223e-02
2.244246441203804066e-01 -1.692472295221292278e-01 -2.688268010772678629e-01
-6.165852246579149876e-01 -2.872818373113833479e-01 -6.012260677075558224e-01
6.499602478446553366e-03 -1.136702755882901539e-01 -5.772713184103532846e-01
3.782457905966346567e-02 -2.134850775446933135e-01 -4.257946001749659537e-01
-1.875707955371900271e-01 -2.369377648681868231e-01 -3.976197494123728249e-01
-5.765872899959241238e-01 2.371244627223467460e-01 3.185212214820933863e-01
-4.641130890407075826e-01 -6.603071228398692261e-02 1.940513733060354740e-01
-3.646249909107274756e-01 -1.509671998524300118e-01 -4.975298452105355040e-01
-3.481696387507842161e-01 -2.044880789185254399e-01 -7.653826575664965937e-01
2.864931782539017480e-01 -2.751318587443437047e-01 -6.849196077235310265e-02
-3.579345677576201146e-01 -9.836463162927280846e-02 -1.901049066290136369e-01
-1.687115757772279234e-01 -1.445580876873871767e-01 8.318319467826962299e-02
-6.322041990620410612e-01 -2.711779876784385923e-01 -7.090667064484920123e-01
-2.477794734322626147e-01 -2.221737647055656018e-01 -5.119722990163695364e-01
-4.364866723437610951e-01 -1.234824513030153281e-01 6.264313408209414014e-02
-3.523872986546884856e-01 -1.043529106080012953e-01 -9.697351445954158211e-02
-7.060524100407836734e-01 -5.399328727587291571e-02 2.529417974747024678e-01
2.698174657280056343e-01 1.831653058860973071e-01 3.288985976585667159e-01
-7.594754372527204311e-02 -2.135762355440733729e-01 -4.541359920329320343e-01
-5.686802212229072895e-01 2.773063663617574282e-01 4.277076268245076363e-01
-5.793070997382014919e-01 -2.110353516396675511e-01 2.931306419865917570e-02
3.671495153922639254e-01 -1.787751687255533517e-01 -7.091505687458377061e-01
-6.753953280231345113e-02 -3.779073788586533866e-01 -1.340637846340057004e-01
2.158299701173339857e-01 -2.176481381264808446e-01 -1.659748150076045259e-01
-1.860347349578825582e-01 -6.659080045442210272e-02 2.728030391909059826e-01
4.535026865497462922e-02 -2.351974935043310289e-01 -2.535764154553326044e-01
-2.670800924159446033e-01 -1.442428289709145051e-01 1.844170104722084313e-01
-3.548086181265487360e-01 -2.145285731456110789e-01 1.313150981841572085e-01
1.243239729734673532e-02 1.325636429812732664e-01 3.731248319180531792e-01
-4.080986841355428996e-01 -9.340447128826034895e-02 -2.866901676637679808e-01
-3.533522076593014205e-01 6.012379327023531506e-01 4.802791396483300224e-01
-2.864695834974436695e-01 4.414563831584104869e-02 3.878694207320232401e-01
5.593259314849865493e-01 -2.054376723501217250e-01 -2.966196846652907060e-01
5.917968027521040009e-01 5.403776352926911164e-01 5.143379913699781536e-01
-3.805518198106671024e-01 4.005831381162767713e-01 3.032929845249777712e-01
-4.062271520075113052e-01 2.660972569340123162e-01 4.290253421636484044e-01
-3.077816706841227448e-02 -2.323433066041036554e-01 -2.479396564701284167e-01
3.746941885040875886e-01 8.911163409084701947e-02 3.238509424835062656e-01
-2.524921276116737778e-01 -2.816732065876362823e-01 -4.312087752334261004e-01
-2.379723053336720573e-01 -1.375749919076002525e-01 1.856434699185269266e-01
7.526720800793493260e-02 5.967137803655813144e-01 4.155345607119110274e-01
2.558811053513381228e-01 -1.136168948487989994e-01 -7.061326403214152059e-01
-5.252298596594202895e-02 -1.057624712309108289e-01 2.244552566033791163e-01
1.440549691598645432e-01 -1.921546169787519132e-01 -6.224115799774820879e-01
3.352842495768154074e-01 -2.323269918109657772e-02 1.883420499607784127e-01
2.353956890973962768e-01 -2.207570566383784127e-01 -4.005356941199531562e-01
-4.178596101967044230e-02 2.035296082652907068e-01 3.411068165894962090e-01
3.872096608369975934e-01 -2.468553572469395774e-01 -8.423229319107620183e-01
-2.941216638414108075e-01 -1.168823649098445216e-01 -2.187537739522930624e-01
2.228299737765023214e-01 -2.863891066487066484e-01 -5.541355503361677926e-01
3.417965723331971573e-01 5.604606145731286793e-01 4.790699650641923601e-01
-6.326155815626953102e-03 -1.030928970597099342e-01 3.204418370627668544e-01
5.404186215548176797e-01 -1.099933051652515204e-01 2.230906997107288681e-01
3.125487097273693671e-01 -1.687217247038679535e-01 -4.560454072419603544e-01
-3.372168661277780699e-01 -1.619928896334953405e-01 1.618564557300791185e-01
5.381217021998567773e-01 6.542213058960637539e-01 4.777825160623031531e-01
-7.062555357424436797e-02 5.784732588558049171e-01 3.632408043233376072e-01
-4.762096600853191197e-01 -2.035276824781931115e-01 -6.899105211181310038e-01
-5.493821467877478826e-01 -1.454264760489416830e-01 2.265434867733510660e-01
1.144991333836845315e-01 -3.049667121930252356e-01 -7.020713172532105917e-01
4.085498585434640950e-01 2.075519717843346545e-01 3.776458361214034554e-01
-3.433550655455103739e-01 5.902791383982888829e-02 2.136828002665842052e-01
5.635315947069375886e-01 3.218782996114522565e-01 2.649739947188988753e-01
-1.363422788048639922e-01 -2.434699754688883222e-01 -7.676101690126069244e-01
-2.636897675707206568e-01 3.551931960710246194e-01 3.452141499895939325e-01
2.812897694972238405e-01 6.420399248099876166e-01 5.573081940577756521e-01
-1.053458043448592396e-01 2.404624042781196569e-01 3.411478215237288558e-01
5.887622376317011019e-01 6.395328024686494084e-01 4.890894334725000570e-01
6.522996853531195516e-01 -1.113764851792962141e-01 1.266870821846253214e-01
-5.611971435540722419e-01 -1.746965597824017280e-01 -6.816783525249000553e-01
-3.244726230471112194e-01 -2.698360440416304185e-01 -6.421446280812808105e-01
-2.191414144436787670e-01 -1.899705169236756142e-01 -4.695173386404968285e-01
3.009780044746490080e-01 -2.559425632317936516e-01 -2.706555174399556951e-01
5.343096237292039863e-01 -2.440423821173762498e-01 -4.574451018798143531e-01
2.089059066402953746e-01 -2.787344712432352489e-01 -4.739118971372895395e-01
-2.246082458850049424e-01 7.370377249871731262e-01 4.524006139444664010e-01
5.720218140707913346e-01 -2.455921656354394522e-01 -8.290284645095701288e-01
-1.172450101043014462e-03 1.653112326209594252e-01 2.682873294517178486e-01
1.758414477058894976e-01 -2.367556614348780286e-01 -7.998819330105860770e-01
1.736386062191037361e-01 -3.515277548915681227e-01 -5.543720336871227339e-02
3.488907455954227133e-01 -1.659972426908134513e-01 -1.008666500001592775e-01
-9.544225875348483212e-02 -1.394325267488224496e-01 -6.027304279091181272e-01
-1.546342619526284157e-01 -1.918918993854717980e-01 -6.628097311693078586e-01
-4.435988662616340839e-01 -3.452690456016202503e-01 -4.220435125387617809e-02
-3.815610663843786721e-02 -2.034057488691482229e-01 -7.135845120089243654e-01
3.213021987074063945e-01 -2.276464958919703629e-01 -5.117305301966251774e-01
5.110559146867179603e-01 -3.027175753976323880e-01 -9.083512989492598111e-02
4.398874778482712578e-01 -2.131569130070210538e-01 2.553181534158849991e-02
-3.000132507022282846e-01 4.873703692310220048e-01 3.646148379815231100e-01
-6.314499067897765272e-01 -2.674580942421677099e-01 4.503595350561902244e-02
1.391295781985953106e-01 1.141492708580554849e-01 3.554354139635542698e-01
-5.822050237196442213e-01 2.064980865004692467e-01 4.049815631715098507e-01
5.740271239304285400e-01 1.038371688842295443e-01 3.179037466020953051e-01
-6.495565965926796137e-01 -7.559148667237501618e-02 -7.680770476627299947e-01
1.358512538288875748e-01 -2.627946457703217442e-01 -1.311718641347540404e-01
-3.449566836698207961e-01 -1.829338357260899550e-01 -5.915083513160590556e-01
3.803109343943494314e-01 -2.626012273928720053e-01 -8.481164022106215672e-01
-2.625380548142909887e-01 -1.853023665695278654e-01 1.042136520168827352e-01
5.862620056127154644e-01 -1.871290766180970511e-01 -3.879010558927101782e-01
4.243097582579429261e-01 6.978909913790629638e-01 4.659714899424129975e-01
3.313496200548642356e-01 -2.165752263272675560e-01 1.146415264124391875e-01
3.442024748260763545e-01 -2.563564657102510025e-01 -2.803176630154543547e-01
-1.573386230620202678e-02 -1.861218778359803316e-01 -5.947589965853807004e-02
2.270070602057863152e-01 2.469166199948586160e-01 2.658935247992290085e-01
5.245335544513413106e-01 3.822860324363334672e-01 3.614509556056909600e-01
-7.983475971076516020e-02 -1.918252112079610328e-01 6.885260150224650766e-02
2.819002440431813139e-01 1.228058992903373892e-01 2.846339541038455101e-01
7.196524859001195429e-01 4.845790458062186890e-01 4.409080043555315132e-01
-2.380221649650948734e-02 -2.301950416779146441e-02 2.892371425864431189e-01
-3.250475394978434851e-01 5.907791399792599041e-01 4.208668546650301545e-01
-3.995872524666436165e-01 6.147405977912809849e-01 4.817655390538796989e-01
-6.670329159080945480e-03 3.194084822467408991e-01 4.885386995440353930e-01
5.279023450481684643e-01 4.909815623529251716e-01 4.014510745898600130e-01
1.642576550226995391e-01 -1.075390316311849309e-01 1.607139736891159409e-01
1.863696255307163430e-01 -2.221335070318332383e-01 -8.153346828717104033e-01
4.771330723130722262e-01 -1.691780627477882104e-01 -8.053042372565596407e-01
-1.194426063932123305e-01 -1.851988227929351472e-01 -1.602415688256998982e-01
-5.165567165333553312e-01 -1.425943662582498939e-01 2.397632984541092083e-01
-3.313417356687138327e-01 5.668586850634195207e-01 4.222898321412411615e-01
-3.237480142042662989e-01 6.665969483751228719e-02 2.442207390219527929e-01
4.572340356257730831e-01 9.683833344719477987e-02 1.909919550769683116e-01
3.159554992863567446e-01 4.139088444350580431e-01 4.799900563108831508e-01
8.114532848417492505e-02 -8.994505956701021043e-02 2.469028020793679334e-01
-1.088771180731041288e-01 6.559138486215267960e-01 5.799016053276633276e-01
-4.024316572139551296e-01 1.759728211928177632e-01 3.837020035089107606e-01
-5.743568104330867286e-01 -2.084502042621970697e-01 -6.904553807593490911e-01
-1.322579557250166682e-01 -5.572428208274966127e-02 1.340899420869732517e-01
-5.925350802889391144e-02 5.310103513808860365e-01 3.710814776037484330e-01
5.713256250523630203e-02 -2.087239688796190817e-01 5.222504678803066569e-02
-4.094333741331792065e-01 -2.589773720101833376e-01 -1.447909085530565132e-01
-4.442696972688465196e-01 -2.107648078817799531e-01 -3.970593796803593700e-01
4.031379169556379427e-01 -1.122193331750780121e-01 2.001874574330275713e-01
-1.784291561041240759e-01 4.301798023594325948e-01 3.869026247456666123e-01
2.295323445620613412e-01 -1.816448335243996681e-01 -5.414967093281688459e-01
5.066101694765193786e-01 -2.164903640989961076e-02 2.984279185156515912e-01
-3.704661310127625451e-01 -1.621223106738425568e-01 -6.647813268740263570e-01
5.834073113069760952e-01 -1.921997791875722505e-01 -6.501084304321840257e-01
5.374057812549265511e-01 -1.907078417869806641e-01 -6.630900368941862189e-01
-6.873301670580167499e-02 -3.057763070730613042e-01 -5.114893777100211203e-01
5.668777044809826526e-02 -1.386508224402557554e-01 1.318577982183785635e-01
-5.901088306475668066e-01 -2.141470013717866328e-01 -7.530208800156941162e-01
-2.570081500533015206e-01 2.360103858372273322e-01 3.712125937509578311e-01
2.628236894205313590e-01 -2.515607066822114213e-01 -4.356874120842296749e-01
4.115211314723216662e-01 1.377404089595909431e-01 3.168118429142908199e-01
3.830609112679457251e-01 -2.068114708046558947e-01 1.742735884862161577e-01
3.838624585164947534e-01 2.745094439093551664e-01 2.636742590611076964e-01
1.548698823430928184e-01 -1.698894835577357265e-01 -7.408316612574026294e-01
2.020005385211408599e-01 5.442458706450634676e-01 3.583868665389244867e-01
2.738931553217372472e-01 -2.122270021205330259e-01 -3.397253726989707401e-01
-2.214028130521260296e-01 6.331124104374061812e-01 3.983926708660774363e-01
-6.779892618463138065e-01 -2.010347541111600911e-01 -4.622584970861536857e-01
-2.908438880031564699e-01 4.785839980260033627e-02 1.854172738314842084e-01
-5.125023412884898155e-01 4.691201960819353367e-01 3.779609020490427018e-01
1.972733608310578979e-01 -1.032594003250471570e-01 1.463434358927470924e-01
2.520172824680418366e-01 4.143525663255175906e-01 3.293758057505797865e-01
-5.945127303750473713e-01 5.028030074454993281e-01 4.757204505972402742e-01
-4.346001465726289648e-01 3.921938676051420769e-01 2.844700757347053965e-01
-1.705546048817603577e-02 7.022798041262614532e-01 4.981866391149573636e-01
-3.555656189769788866e-02 3.050995275639443172e-01 3.693971856779676988e-01
7.841895807442030020e-02 -6.233445217016533868e-02 2.924316556101717035e-01
4.268883093619982860e-01 3.518230138830033549e-01 3.301818114518204617e-01
3.555297051882677084e-01 2.244666939290403118e-01 3.055468725926882012e-01
-1.174299574165315191e-01 -2.109166350678074592e-02 2.702400436892735680e-01
1.586866363815439829e-01 3.755834307553106988e-01 3.939231887531300935e-01
1.319179136218995296e-01 1.379128699847939066e-01 3.154886536267368369e-01
-5.701497582007575282e-01 -2.580859011952701398e-01 -2.633423409961486161e-01
-1.013843343437538513e-01 2.587186881259982973e-01 3.090740333561589059e-01
3.216289211462352582e-01 4.081678497887515633e-02 3.812028103939278934e-01
4.862780900570533027e-01 -7.725340796897232909e-02 2.386776255636642308e-01
-6.343518493184134854e-01 -1.845385719141010017e-01 -6.361403020633336070e-01
-1.025758674136332399e-02 -1.392032943724257066e-01 -6.233389422888893083e-01
-3.387121150302137562e-01 -1.061236146573575068e-01 -1.549311218952246216e-01
5.669026275413664440e-01 -2.529380012021912871e-01 -6.174617307966833168e-01
-1.806768594699435515e-01 -2.154507047862161129e-01 -1.468051940260021726e-01
-2.748830870295263656e-02 -2.318514539719304657e-01 -6.876240978461332087e-01
-2.405509340602029478e-01 -2.329593583435819182e-01 -1.616916692448035209e-02
4.563611583326510623e-01 -2.770260382453663683e-01 -2.458662925733586524e-01
-4.685655795680627178e-01 -2.261841958958227539e-01 -4.261830069037418900e-01
-4.624633534271067048e-01 -2.243458267697250597e-01 -6.375257477631601777e-01
-1.634496520052652890e-01 -3.045838063792450923e-01 2.356218971931818562e-02
-2.064917000415609771e-01 -2.151456105959081988e-01 -5.772674391425438589e-01
3.464014926971691333e-01 -1.330782359748597654e-01 -3.929813470839131906e-01
-5.408247845047311486e-01 9.212895283218071329e-02 2.921921768704869304e-01
-5.431942869984484057e-01 6.150684621102766592e-01 5.050575926279078365e-01
-9.203099698871274048e-02 -2.708954502528830299e-01 1.717441113547858722e-01
-1.959763728156104778e-01 -2.585466003162061321e-01 2.700015243355371464e-01
4.693100670407717723e-01 -2.111770365127747240e-01 1.369244360034381491e-01
-1.284646215265077829e-01 -1.759292487969351948e-01 -6.538358609185995762e-02
-6.290400915294033224e-01 -2.204653299807075029e-01 -1.938465441990335492e-01
1.211595581555088841e-01 -1.322491852840224635e-01 -4.472552503116890010e-01
-8.488240687513301519e-02 -2.038629900233577819e-01 6.850883993515194392e-02
6.321457355647964738e-01 -2.560831621736014974e-01 -2.764610656599477551e-02
5.414610928555436686e-01 -1.882404490610534442e-01 -5.377265522627526773e-01
-5.006926988010852453e-01 -1.837466860900467125e-01 -2.229612449521866657e-01
-4.595512881915604919e-01 6.079469330913066516e-01 3.934040741384468021e-01
-5.624923593915364117e-01 -2.702248617604647851e-01 -2.151260115143047713e-01
5.493897855499065841e-01 -2.122566176795195048e-01 -1.999620451117077868e-01
-2.707452313558831453e-02 -2.460244761918184142e-01 -3.713422495344935181e-01
6.105158093197279173e-03 -6.455608433184771566e-02 -1.516687481648312796e-01
3.587495746747407788e-01 -8.450786226782285027e-02 -5.207723408162622247e-01
6.033640101184329918e-01 -3.223603568788541152e-01 -6.963786717542042037e-02
7.482812673277848547e-02 -1.425574432295845795e-01 -6.834903971449104443e-01
-5.512922923197718372e-01 -2.111205790595079290e-01 -2.097596952831781714e-02
7.372492700135870047e-02 -2.229183517633590572e-01 5.869009410434265772e-02
-4.490207434671920628e-01 -2.695821392132241590e-01 -7.099559038165598190e-01
-4.472963148854425808e-01 -1.795026183846401002e-01 8.454503196659857167e-03
2.243699094798367877e-01 -2.860711469792478479e-01 -8.030531680100356784e-01
-8.881234488374439850e-04 6.221907387098009057e-01 5.149264872494875300e-01
2.307056213143330314e-01 -2.313308615602348989e-02 1.215596325539957390e-01
4.753838368028534545e-01 -1.538639178690507647e-01 1.788312813674803881e-01
3.732795244130546752e-01 3.751083466615758866e-01 2.910765994831332470e-01
-2.336897450908045626e-01 -2.692697106238981647e-02 2.762762039710012774e-01
4.667633796760981557e-01 -1.316876646912670534e-01 -6.290993692102412327e-01
5.280300849579977474e-01 -1.761949481339448176e-01 -3.906732386883853270e-01
-2.104049378024593075e-02 2.459403959917609017e-01 3.521008445365540473e-01
4.747890241142285750e-01 -1.171974968799721628e-01 9.440994631775757873e-02
6.105684165492550330e-02 -1.451707710600966539e-01 -2.595505701961143274e-01
-4.008360427846924257e-01 4.071077861139638099e-01 3.875479306508878841e-01
-2.688027114461757350e-01 1.754466045104020322e-01 2.463874152203111567e-01
4.278021728176891747e-01 -1.703522097749472775e-01 -4.226824807977080933e-02
-1.951085495281525695e-01 -2.535700874289087969e-01 -2.424763891010766476e-02
-8.914331871865054102e-02 -2.427384393217829617e-01 -7.095202100259629940e-01
2.275166388139838458e-01 -3.209043511079999744e-01 -4.789817763476119650e-01
-1.455801915254156809e-01 -1.651142055773315298e-01 -3.364902244978532631e-01
1.677227098940496652e-01 -2.907313557098203938e-01 -5.188405037554004728e-01
-5.337671063029019169e-01 4.537535551388389155e-01 5.170293430423811287e-01
5.336810808448189114e-01 5.287574694263717789e-02 3.259942396382617957e-01
5.731118549226632553e-01 4.429266298714539807e-01 4.806933118681954165e-01
4.712242005613900275e-01 -1.853014551196850157e-01 2.315037381882757012e-03
-8.054621752643530141e-02 -2.400766529901594004e-01 -4.600248812329370274e-02
2.159305566710811308e-01 -1.957220378016110429e-01 3.529826081113157654e-02
4.085180627013726973e-01 5.874688874074149858e-01 4.629421625523052475e-01
3.870587148398477728e-01 5.784391627889409193e-01 4.021227967386956093e-01
-5.756272695875116474e-01 3.348776002895062498e-01 3.528599481806490856e-01
4.838507885280619036e-01 3.912982903239093924e-01 3.383743404813248645e-01
-4.785930504152728915e-01 5.218814509154218184e-01 4.389497709637718570e-01
-4.811430919947909390e-01 2.768575726799096803e-01 3.585023587813738755e-01
2.356560671641956539e-01 -6.540309802073598910e-02 1.717164892727410241e-01
3.530147187763798405e-02 5.129104453987520795e-01 4.381007189355733966e-01
-2.641311764793473071e-01 -1.884954926277706277e-01 2.401905712553697447e-01
-1.584466251609758722e-02 -1.758862895205234311e-01 2.497992074003909657e-01
5.263524149856728673e-01 -2.474415679439948834e-01 -3.277332739474408951e-01
3.637205225936976372e-01 -2.123205512192283817e-01 2.535531662704550437e-01
1.364854818413117621e-01 6.363856065580772992e-01 4.245944320232629687e-01
-3.475776182419805238e-01 -1.228055335216023947e-01 2.158646818858615257e-01
6.366432716763619215e-01 5.619155729321558684e-02 3.045665090920037787e-01
-2.544475220242760072e-01 -2.030474956866976100e-01 -2.986310536436173058e-01
-2.698664266638047676e-02 4.822953343725005504e-01 3.523903639145393174e-01
-1.558575280450307521e-01 5.146871895860195556e-01 4.433555991325119905e-01
-9.585509001738190538e-02 -1.969927897590668664e-01 -7.191521288854738625e-01
1.955427067391431878e-03 4.378289497818843024e-01 4.035043850261738618e-01
-2.868058267391771499e-01 4.280345150064354676e-01 3.322368106121898479e-01
-3.013348577902394410e-01 -1.208571990703304622e-01 -2.535951911203250808e-01
4.955507871577489731e-01 4.710425861480642684e-01 2.884983885608880527e-01
4.420854021929454536e-01 4.902436151272745457e-01 4.407109992883934124e-01
2.389052946386189535e-01 -2.701359616624553206e-02 2.224000153286193604e-01
5.138693064838371072e-01 -1.404048014174565373e-01 3.399936216963264646e-02
2.815975735121967194e-01 -1.896596800031619401e-01 1.377198907690176666e-01
1.241386271829912485e-01 4.386013069222970961e-01 4.448934244267257476e-01
2.807554724101786192e-01 -2.373158215049477882e-01 2.004965885863070618e-01
6.112068117434769077e-01 -1.733411174708698599e-01 -3.330999355749180157e-01
6.515521438671942889e-01 -3.232341661226363350e-01 -6.198024533922766866e-01
7.127196718923220486e-02 -1.635345773314476614e-01 -2.891240004152176857e-01
-5.105164678107552145e-01 -8.034595744528646999e-02 1.961715139481544079e-01
4.020472732832705565e-01 -3.442327544292222985e-01 -6.520100704035292072e-01
-7.090193632366785514e-02 -8.897219662810562646e-02 2.656569433741404751e-01
-4.801247023762422045e-02 -1.319069547559076072e-01 -3.976015887457505782e-01
-2.434301382227726240e-01 -2.400900653378465477e-01 -5.793554381757400062e-02
-2.017354145683563083e-01 -1.287125244863551732e-01 -4.698158982761712066e-01
-5.257608202355157356e-01 -1.566235188910356790e-01 -4.962659904158665813e-02
-2.618419456662452460e-01 -1.959879517445169417e-01 -1.311389316629684165e-01
-5.463517322423997458e-01 2.643689126850036208e-01 3.129396190316519055e-01
-1.606076562156624754e-01 -1.703898033538275292e-01 -5.362835839396468129e-01
-2.269976885886316187e-01 5.784289564496818414e-01 4.598672298326038632e-01
1.307566512490314636e-01 4.288539206675162085e-01 3.936688335175378417e-01
2.084139875060739278e-01 -6.501696863461825515e-02 -2.807830298873558172e-01
2.659030661247584471e-01 9.429577239889201656e-02 3.996991437303162309e-01
-1.570243109893170730e-01 2.978719729751898027e-01 3.881933810582866573e-01
5.421561552930641570e-01 1.393051864559195496e-01 2.630133099434819322e-01
-2.942874965237329277e-01 5.771300451497238249e-02 2.692198133430133145e-01
-4.129030670693433769e-01 -2.459356630967424739e-01 -6.766230739241931857e-01
-2.321663736856368898e-01 -2.673890424037479452e-01 6.703735519499531836e-02
-2.366045890748713076e-01 3.259023371419140225e-01 4.718754506640299717e-01
-1.916816734549180168e-01 -1.590151856251223461e-01 -6.567529862200083279e-01
2.654589751422374855e-01 -2.663301827427174695e-01 -1.369170148286587840e-01
-4.139629175855480403e-02 -3.284371520619241425e-01 -1.025394483285263780e-01
-8.745253793319898716e-02 -1.504435206268799063e-01 -7.329077307989452228e-01
4.808074168532681103e-01 -1.857695797641025492e-01 1.954516472651227077e-01
1.626708458422447268e-01 -2.421994739415471998e-01 -9.312999438889073278e-02
2.957005459776381739e-01 -2.683560653752321556e-01 -4.472553127952931251e-01
5.993490347080866476e-01 -1.807551393210066748e-01 -2.167492980006554548e-01
-3.829467409081074858e-01 -1.947397681289678439e-01 1.600590375655828179e-01
2.508866676719607169e-01 3.871573153926719524e-01 4.818626712879589546e-01
-3.626081808561750774e-01 1.475811768066866703e-01 3.885396983615297950e-01
2.312154703505359399e-01 -2.396591661469987811e-01 -7.472661019271501504e-01
5.133810916153522808e-01 -1.224170801759396215e-01 -4.397679780817046469e-01
4.489604935779983319e-01 -2.166317872069047079e-01 -3.856684725045591011e-01
3.907269894960700984e-01 -2.387854054743853982e-01 -7.006239877093266566e-01
-4.372126369073798258e-01 -2.519891775217076302e-01 -4.640997423552243872e-01
-3.225414119642868727e-01 -1.992843851757827023e-01 -6.881835463384506912e-01
5.523098191920735589e-01 4.127884156608292443e-01 4.545478551730085526e-01
4.999060912587092176e-01 -1.728683072580035340e-01 -4.375605874195782063e-01
-3.050498465151216809e-01 -1.883041496446687668e-01 -3.610446597842179584e-01
-3.734371271567528128e-01 -1.810862740565697682e-01 2.067057819128861884e-01
9.954957112522563878e-02 2.716297797289728977e-01 2.434877176395021936e-01
6.181630843055954116e-01 1.699534171950728423e-01 3.221689169895523563e-01
-3.517750325233755526e-01 -1.381117963263249759e-01 3.286519008278208087e-01
-2.478189889925272449e-02 -1.441304907842566874e-01 1.394048485596153797e-01
-8.170966367744536551e-02 3.996566885678151104e-01 4.200846044394649370e-01
2.320938369287064429e-01 5.970448138851291997e-01 5.098484170502108892e-01
5.377770237652381713e-01 5.781345008884302139e-01 4.238937923886695880e-01
2.304895353219113541e-01 1.531397065478630193e-01 2.651777077642039071e-01
-3.987511778047737043e-01 -1.410050875658020453e-01 7.575656185255796871e-04
6.296908630343287516e-01 -2.183198610318392574e-01 -7.431190382055820054e-01
1.780254183122120248e-01 -1.002548269192271996e-01 -5.965549173225750401e-01
-6.294629088745523626e-01 -1.791686987347687887e-01 9.554275497249896387e-02
3.930617840167583976e-01 -1.664109681697286680e-01 -1.979260547103412482e-01
-3.528171634120985112e-01 5.811128280945430102e-01 4.799302925862111158e-01
4.594414463433950102e-01 -2.822467211936544595e-01 2.560853279300070451e-01
1.215007553333551649e-01 2.644738753222440897e-01 3.774781538632925315e-01
5.377754884540354441e-01 1.236810458121148926e-01 2.668923005651624436e-01
1.753456096681216270e-01 -2.508440686584356150e-01 -3.051924051237553392e-01
-1.020283847615358619e-01 -3.035962170406343308e-01 -6.456936453277213328e-01
5.626534411872312624e-01 -2.852025828758751880e-01 -1.622882094230036487e-01
-7.406655786319947532e-02 -2.692868540626203733e-01 -1.868393868332962060e-01
-5.575469120570951675e-01 1.987220512842868270e-01 2.942236171757875440e-01
1.432980514930482507e-01 3.246049673378388900e-01 3.799138517825140227e-01
4.040934648280338631e-02 -1.345980904942900395e-02 3.025741318735560292e-01
-1.691388217096138902e-01 -3.988413467800996925e-02 2.628016690612803852e-01
2.372842973154183077e-01 4.216852497439902425e-01 4.111852331882220879e-01
-3.807622480893897432e-01 9.639285934299805098e-03 2.963460742522150970e-01
-4.975657789965320932e-01 -1.475472961150854079e-01 -1.737279803179991866e-02
-3.890231847659630926e-01 -2.063406742171577379e-01 1.037035078196121701e-01
-4.029786515181817963e-01 -1.419659313323161087e-01 1.685209433683961255e-01
-4.256934870573357843e-01 8.989186226960049764e-02 2.941129269852437722e-01
-2.402550983695501685e-01 2.871831095979583970e-01 3.455094997817462210e-01
-2.264759020012866719e-01 3.959322242084159504e-01 3.536018939692205931e-01
-2.068160060349336637e-01 9.659493278722780518e-02 3.284269828476113484e-01
2.824402217001821813e-01 -1.776923216409116435e-01 -1.779050237204908291e-01
-3.892078523370503529e-01 -1.212781726575251628e-01 -1.333999758108799227e-01
-3.539769767515341115e-01 4.788929855289572046e-01 4.999846804705830317e-01
-7.999234220615356050e-02 -9.925473370722616429e-02 -3.821068352257511735e-01
-4.513698168918765519e-01 2.609253350445966402e-01 3.686749450495155900e-01
-5.466870837180936027e-01 -1.356617729756793289e-01 -4.966397526466253542e-01
6.118938200694553631e-01 4.946583048002946292e-02 1.417668099923184988e-01
-4.685137754037752567e-01 -1.409225899255281411e-01 1.081270342385391436e-01
3.029362673919323568e-01 2.214522643850713735e-01 4.330147313277959986e-01
-8.432159065748461024e-02 3.994742283699269092e-01 3.459588562928767042e-01
2.584948830123665747e-02 -2.090298832805275731e-01 -6.934958795704029844e-02
4.913735899762489701e-01 -6.609787063939914775e-02 1.851530806670093066e-01
-4.552729785231196535e-01 4.684230798192655087e-01 5.016511830599043043e-01
-3.805061779481203055e-01 -2.135486340325460364e-01 -7.637234260527334673e-01
4.050939053246520039e-01 -2.226952465391238978e-01 -1.741006947254810922e-01
-1.684120827251877478e-02 -2.146364104790369765e-01 -3.909573041063906795e-01
5.952713869410878322e-01 -2.931945884915596601e-01 6.486049707767564676e-02
4.074610422994513481e-01 3.483981683808914931e-01 3.339775780779399295e-01
-2.220984554790488286e-01 -1.791307133375654725e-01 -2.996819229673950979e-01
-3.495570385970151461e-01 -2.041990638352067511e-01 -4.775331248929068351e-01
-2.622940333918166722e-01 -2.692198090705604230e-01 -6.078267526024342393e-01
-1.080323096068804278e-01 -4.134303575896774996e-02 3.080201456252297243e-01
8.730862359155502905e-02 -2.201524852443931535e-01 -5.267099757865407739e-01
-3.401073715938599529e-01 -3.095835870564136449e-01 -5.439301078282648277e-03
-4.276237056235129841e-01 -2.006413934486520334e-01 -1.449167606877253545e-01
-8.912248224234069205e-02 -1.961554940496810784e-01 -5.859000325238226115e-01
-3.715749807218291512e-01 -1.611532454788185964e-01 2.855156055954076455e-02
2.834291396085494158e-02 -1.513737854114881043e-01 -1.836613775088012102e-01
3.965498241590379447e-01 -1.738079800940885433e-01 -3.973675881277933253e-01
3.497847410580929850e-01 -2.888374781259070989e-01 -5.911711316027633556e-01
-2.920986546799039796e-01 -2.149395053462160587e-01 -3.982137524454741340e-01
-4.590294161433860487e-01 -2.804847864957493164e-01 -5.852165086697636021e-01
-9.957652679322323563e-02 -1.692417226424930699e-01 -3.352407298316806283e-01
-2.141409469095803542e-01 -2.989958099464564145e-01 3.499283777915056931e-02
2.067755051182758597e-01 -2.972465565508773944e-01 -6.327489735557467743e-01
2.449368720243102482e-01 -2.858168449417525792e-01 -6.734654788838626560e-01
-1.231816242943086781e-01 -2.114427247268977350e-01 -1.844717762946402884e-01
-4.512922764143825205e-01 -3.714499806990825131e-02 2.472427903632885282e-01
-2.543824662423123661e-01 4.304395230983476539e-01 4.128405374054236465e-01
-4.451858325027961971e-01 -2.577903632539613188e-01 -7.536597282507015994e-01
-4.557669697847449575e-01 6.115777658838893460e-01 4.730478607435474880e-01
5.521645154129714572e-02 -1.770387325000793710e-01 2.346835037355682607e-01
-4.150899004466827025e-01 -6.541946908731521848e-02 3.135009013653476950e-01
-3.122764417661499370e-01 -1.948066782167917621e-01 -7.841709914626384670e-01
-2.786141220076659430e-01 -1.353872278670632257e-01 -3.960370225509324826e-01
3.511084506551627182e-01 -1.988856023814272456e-01 -5.126067971541495849e-01
-5.331135287194184169e-01 5.652037458911070289e-02 2.814515075449608439e-01
5.410317472553362317e-02 -1.747803439021948235e-01 -7.489000517132323731e-01
-5.146376507709257142e-01 -1.219788194165586787e-01 2.123672809413518214e-01
5.575651445311097243e-01 -2.033441194690632503e-01 -5.870882850292782340e-01
-6.761189154638863608e-01 -1.430196899528420329e-01 -9.436804329556185145e-02
-1.197756339149508437e-01 -1.840631984542866195e-01 1.233563195848460803e-01
4.279466260613484785e-01 1.506704424131885822e-01 2.603355387831641776e-01
-5.562241736913070556e-01 -2.003744014657634354e-01 -2.474885656783746002e-01
2.715179443956028046e-03 -2.550126002842296180e-01 2.243524647912029102e-01
-1.699330735395464254e-01 -1.782663715773017410e-01 2.245711161365529229e-01
-2.151027998698260557e-01 8.887866123460674839e-02 3.013712802857332340e-01
6.411421240465313698e-01 -8.779313544654143708e-02 2.261430323015752308e-01
5.205517566497778192e-01 -1.374175120391589733e-01 -2.500590494716920520e-01
-2.191458698782378089e-01 -1.418225479128587541e-01 1.070754482565010601e-01
-6.336220064066228064e-02 -2.530547824652629174e-01 -5.165699016259082121e-01
5.297705782214223724e-01 -2.485422287364009719e-01 -5.230129444682095619e-01
1.480182816551552927e-01 1.596478902042009484e-01 3.439846832318239622e-01
-3.795686857485322530e-01 3.806095202826351165e-01 3.755230040347219966e-01
-1.050519488682792046e-01 -2.699039333705019472e-01 1.291907121079265419e-01
7.769993695985612236e-03 2.911569268462469995e-01 2.424265071802033933e-01
2.602907275813145516e-01 -1.606584982276292872e-01 1.862437708477397424e-01
-5.420846956389527849e-01 -1.806678362012853478e-01 -2.455575435112861138e-01
-3.688604630231412385e-01 -3.168232188032036878e-01 5.701444111655803310e-02
-2.249439352785877200e-02 3.809666479638454395e-01 4.946099810534429486e-01
6.077241655212817228e-02 3.938751495195199626e-01 4.245389707728492446e-01
3.692814658928235405e-02 1.912995367032818972e-01 3.024760491930801876e-01
4.495776759559979574e-01 -1.198621360737703832e-02 2.250568403642190518e-01
-2.992408273815514996e-01 1.404166569267545073e-01 2.455716547989503784e-01
2.035296809920635885e-01 -8.406378137517457605e-02 2.967503354631478851e-01
1.653768265307987151e-01 -6.126407702886582651e-02 1.357163987814941630e-01
6.006213259591526299e-01 1.345927619388851137e-01 3.946591112098403742e-01
5.289157174670932049e-01 6.089716920573503556e-01 5.695213466802866442e-01
-2.010499203721571038e-01 -2.388427295730237987e-01 -4.615856821252153352e-01
5.979025163635677265e-01 5.217570979463330705e-01 4.529133928535628573e-01
-5.280950907372281566e-01 4.115950784134201901e-01 3.432772271527915753e-01
-5.675607953906444125e-01 -1.830117354731415347e-01 2.982830745846132281e-01
-1.039233584372534075e-01 -2.358913640176711901e-01 -1.281771629881940100e-01
1.099247774690836066e-01 2.282967605496149521e-01 3.223907406598245373e-01
-5.408378550667681806e-01 5.400911663781655658e-01 3.746766244819538239e-01
3.354571442567901296e-01 -1.980891865004120733e-01 -1.211181454417031844e-01
5.560175078542629601e-01 -1.297832842528436337e-01 2.084739504914124852e-01
5.201189770523090283e-01 2.789248084064114286e-01 3.897279663299536567e-01
-2.828670522411469990e-01 -2.290467058025574265e-01 -4.978262450368934333e-01
-4.381690173068742977e-01 2.670965735970504129e-01 3.229494955500473719e-01
4.071196500911104521e-01 -1.837180423441190924e-01 -1.115548033225738089e-01
2.833366924566813605e-01 -2.721965011830158598e-01 -6.259392224320003972e-01
4.501771877305861258e-01 -2.420019618358733859e-01 -3.635656673606018074e-01
1.616676782117530131e-01 -2.194554036056572954e-01 9.131826830968549358e-02
-3.348432018423208589e-01 4.477997496591892834e-01 3.392101059748091618e-01
-6.185536828425119982e-01 3.848630041490312959e-01 4.149145799254520539e-01
3.868492499040715460e-01 -1.674122421199263910e-01 -4.354256454671784349e-01
2.952811658186551419e-02 -2.035305243628280081e-01 -8.742167289790586659e-02
4.751670497123856030e-01 -2.199031937894434519e-01 -5.582398500194762914e-02
2.234562077832625282e-01 6.423027816183195515e-01 5.597945719960875088e-01
5.199215635742294728e-01 -2.804747712795069292e-01 7.498252869457311398e-02
-2.710484313897456032e-01 9.174754829716103011e-02 1.693310670947375529e-01
2.450652781602224717e-01 -1.120720880520273965e-01 1.488377342403614800e-01
-5.906643483267418615e-01 -2.077912217721265831e-01 -4.757126870993165779e-01
3.573678067990923024e-01 5.222811435534562285e-01 3.961722724830507580e-01
6.563482157008613260e-01 -2.014303004539864661e-01 5.298819785051585990e-02
-6.054590606806857789e-01 2.039152991847573149e-02 2.504198784356280183e-01
2.273889688737471548e-01 1.682585030657637593e-01 3.070851460498387198e-01
-3.105515541985946482e-01 6.641337080003476556e-01 4.562296075745870816e-01
3.149195515806970519e-03 2.723208043913483145e-01 4.093728607613412174e-01
-3.116535155137996060e-01 4.540242021469100830e-01 4.080587591155960814e-01
4.633981832318389560e-01 3.864235637801891055e-02 2.978197463452598170e-01
2.563338325738358514e-01 4.088529270923020875e-01 3.991373027250629257e-01
1.228249694767889477e-01 -9.898031625907664777e-02 -3.738428351010443518e-02
5.448714715444816781e-01 -1.505388810805150246e-01 -7.740811554461888289e-01
3.588033703886469583e-01 5.971518982718664326e-01 4.413490450203405024e-01
-6.496219852922004989e-01 3.825836900289748543e-01 3.689810427854625652e-01
1.732195997047021874e-01 -1.328641672530218310e-01 7.250417168485635833e-02
6.654484375251364936e-01 -1.702382450029626959e-01 -9.315595753058467099e-02
-1.792220965514177422e-01 -2.357878758816002174e-01 -4.619910796324338542e-01
5.668540990711135041e-02 -5.980313058797462333e-02 2.116321608389053199e-01
-5.274119722632341078e-01 -1.394320695608476657e-01 -5.680817991252010701e-01
8.793484348705960657e-03 -1.989642869822774163e-01 -5.310035382722619879e-01
-3.340365043673440559e-01 -2.188113676550314246e-01 -2.155454953470943291e-01
