ply
format ascii 1.0
element vertex 625
property float x
property float y
property float z
end_header
-4.673492312431335449e-01 -1.684441715478897095e-01 -3.167266026139259338e-02
7.538084685802459717e-02 -1.734041720628738403e-01 -6.378614902496337891e-01
-2.658373713493347168e-01 6.475230455398559570e-01 4.833884239196777344e-01
-3.475313484668731689e-01 2.645533680915832520e-01 3.320600390434265137e-01
4.347857236862182617e-01 -9.501685947179794312e-02 2.124367356300354004e-01
-4.321429729461669922e-01 -1.713618040084838867e-01 -5.885532498359680176e-01
5.828074216842651367e-01 -2.452754080295562744e-01 -7.224730253219604492e-01
1.529414951801300049e-01 -2.452754080295562744e-01 -7.083711624145507812e-01
-3.263298273086547852e-01 -2.452754080295562744e-01 -4.193300306797027588e-01
-4.602496027946472168e-01 -2.452754080295562744e-01 1.022471189498901367e-01
3.150651454925537109e-01 -1.683469265699386597e-01 -1.515342593193054199e-01
5.188410729169845581e-02 6.359497904777526855e-01 4.921413362026214600e-01
-2.559174001216888428e-01 7.274757325649261475e-02 3.130953609943389893e-01
3.361694216728210449e-01 -6.379806995391845703e-02 2.228429764509201050e-01
1.176380291581153870e-01 -1.813790500164031982e-01 2.296508103609085083e-01
1.670434325933456421e-01 3.168569803237915039e-01 3.494686186313629150e-01
1.176380291581153870e-01 2.110953480005264282e-01 3.143596947193145752e-01
-2.277135401964187622e-01 1.525548100471496582e-01 2.948114871978759766e-01
1.317399591207504272e-01 5.657318234443664551e-01 4.322324097156524658e-01
3.502713441848754883e-01 -2.158952504396438599e-02 2.369449138641357422e-01
1.182215586304664612e-01 -1.697084903717041016e-01 -7.538863420486450195e-01
5.405988693237304688e-01 4.058450460433959961e-01 4.249382913112640381e-01
-2.770216763019561768e-01 6.300171613693237305e-01 4.449728131294250488e-01
-4.461476802825927734e-01 -2.411907315254211426e-01 1.470815390348434448e-01
-2.488178163766860962e-01 -1.684441715478897095e-01 -3.167266026139259338e-02
-2.065120041370391846e-01 1.522727757692337036e-01 3.399376571178436279e-01
6.078991293907165527e-01 -2.382730692625045776e-01 -1.444813460111618042e-01
1.041196212172508240e-01 -2.249491810798645020e-01 2.130202353000640869e-01
5.829046964645385742e-01 4.828707873821258545e-01 3.960536718368530273e-01
5.758050680160522461e-01 -1.703892648220062256e-01 -5.284501984715461731e-02
6.143179535865783691e-01 1.678335368633270264e-01 3.123173415660858154e-01
-3.475313484668731689e-01 -2.452754080295562744e-01 -7.576792836189270020e-01
-1.148980408906936646e-01 -1.710700541734695435e-01 7.443226128816604614e-02
-5.730651021003723145e-01 -1.708755344152450562e-01 9.514750540256500244e-02
-3.404317796230316162e-01 -1.700975149869918823e-01 2.333464920520782471e-01
6.098442673683166504e-01 -1.704865097999572754e-01 -6.871695518493652344e-01
-3.545337021350860596e-01 -2.452754080295562744e-01 4.583936184644699097e-02
-1.625256612896919250e-02 -2.452754080295562744e-01 -4.475339055061340332e-01
-5.448612570762634277e-01 -2.452754080295562744e-01 -2.079176902770996094e-01
4.982930719852447510e-01 -2.452754080295562744e-01 1.233513951301574707e-01
2.656597495079040527e-01 -2.645225822925567627e-02 2.352915853261947632e-01
-6.082713007926940918e-01 -1.703892648220062256e-01 3.173743560910224915e-02
2.768440246582031250e-01 -1.743767112493515015e-01 1.059427782893180847e-01
4.559872448444366455e-01 -2.452754080295562744e-01 -5.462474822998046875e-01
9.653375297784805298e-02 -5.446163192391395569e-02 2.718594074249267578e-01
3.079655468463897705e-01 4.108050465583801270e-01 4.265916049480438232e-01
-1.289999783039093018e-01 -1.724316030740737915e-01 -5.391478538513183594e-01
-8.673307299613952637e-02 -1.791421920061111450e-01 1.664352267980575562e-01
3.925771713256835938e-01 -2.452754080295562744e-01 -1.444823145866394043e-01
1.035360917448997498e-01 2.528924942016601562e-01 3.740741014480590820e-01
-5.025554299354553223e-01 -1.713618040084838867e-01 -7.083711624145507812e-01
-4.743515253067016602e-01 -2.341883778572082520e-01 1.866642087697982788e-01
-6.082713007926940918e-01 2.228310853242874146e-01 3.094969689846038818e-01
6.055650711059570312e-01 -1.725288778543472290e-01 2.174939811229705811e-01
-6.141065955162048340e-01 -1.716535836458206177e-01 -3.764407038688659668e-01
-3.724013641476631165e-02 -1.684441715478897095e-01 -1.668081134557723999e-01
6.139289736747741699e-01 -2.023860812187194824e-01 -4.111606180667877197e-01
2.233539223670959473e-01 -6.875807046890258789e-02 2.211896628141403198e-01
-5.025554299354553223e-01 -1.110638901591300964e-01 2.071849703788757324e-01
-2.700193226337432861e-01 2.956943213939666748e-01 3.424662947654724121e-01
6.146097183227539062e-01 -2.061790078878402710e-01 -6.167571544647216797e-01
5.193973779678344727e-01 1.474586576223373413e-01 3.379925787448883057e-01
-5.378589034080505371e-01 2.789470553398132324e-01 3.827297687530517578e-01
5.959367752075195312e-01 -2.444001138210296631e-01 -2.220098972320556641e-01
7.538084685802459717e-02 -1.694167256355285645e-01 -8.548370748758316040e-02
-4.391453266143798828e-01 2.630459070205688477e-01 3.771862387657165527e-01
-8.674279600381851196e-02 8.879460394382476807e-02 3.191251456737518311e-01
-4.532472491264343262e-01 -1.703892648220062256e-01 -7.505796551704406738e-01
2.797616720199584961e-01 1.079629920423030853e-02 2.476429492235183716e-01
-6.558989733457565308e-02 -5.347985308617353439e-03 2.422939389944076538e-01
-2.700193226337432861e-01 -8.062314987182617188e-02 2.632036805152893066e-01
-3.052255809307098389e-01 1.265002638101577759e-01 2.861558496952056885e-01
4.559872448444366455e-01 2.061596810817718506e-01 3.127063810825347900e-01
1.899255067110061646e-02 5.168126821517944336e-01 4.608252942562103271e-01
1.740457862615585327e-01 1.946738809347152710e-01 3.537478446960449219e-01
3.009632229804992676e-01 3.068397343158721924e-01 3.461619913578033447e-01
5.688027143478393555e-01 -1.703892648220062256e-01 -7.365750074386596680e-01
-3.757352530956268311e-01 4.742151200771331787e-01 4.476959109306335449e-01
-3.545337021350860596e-01 -1.129117161035537720e-01 2.524084150791168213e-01
6.833960860967636108e-02 4.063313007354736328e-01 3.792285919189453125e-01
2.727593183517456055e-01 -1.684441715478897095e-01 -2.572063803672790527e-01
-2.330353297293186188e-02 -1.686386764049530029e-01 -3.418180346488952637e-01
-5.301757454872131348e-01 5.433632135391235352e-01 4.707452952861785889e-01
-5.800674557685852051e-01 -1.706810295581817627e-01 -1.444774419069290161e-01
5.308734178543090820e-01 -1.063956394791603088e-01 2.068931907415390015e-01
6.101360321044921875e-01 2.478741854429244995e-01 3.494686186313629150e-01
-1.313340961933135986e-01 -1.697084903717041016e-01 -6.613970994949340820e-01
3.431717455387115479e-01 5.766243338584899902e-01 4.342747330665588379e-01
5.758050680160522461e-01 6.516077518463134766e-01 4.521696269512176514e-01
2.938635945320129395e-01 -1.703892648220062256e-01 -6.942691802978515625e-01
3.713756501674652100e-01 -2.452754080295562744e-01 -7.506769299507141113e-01
2.656597495079040527e-01 -2.452754080295562744e-01 -4.052280783653259277e-01
-4.391453266143798828e-01 -2.452754080295562744e-01 -3.468781942501664162e-03
-8.673307299613952637e-02 -2.452754080295562744e-01 -8.809985965490341187e-02
-3.122279047966003418e-01 -1.683469265699386597e-01 2.463783323764801025e-02
3.150651454925537109e-01 -2.452754080295562744e-01 -3.167266026139259338e-02
-1.148980408906936646e-01 -2.452754080295562744e-01 -4.334320127964019775e-01
-5.519608259201049805e-01 -2.452754080295562744e-01 -6.730676889419555664e-01
3.572736978530883789e-01 -2.452754080295562744e-01 3.533547045662999153e-03
3.290698230266571045e-01 -2.452754080295562744e-01 -4.898397028446197510e-01
2.233539223670959473e-01 -1.713618040084838867e-01 -6.096575260162353516e-01
3.220674991607666016e-01 -2.452754080295562744e-01 -2.431530654430389404e-01
4.237959384918212891e-01 -2.254354506731033325e-01 -7.852023839950561523e-01
9.653375297784805298e-02 -1.724316030740737915e-01 -6.026552319526672363e-01
7.538084685802459717e-02 -2.452754080295562744e-01 -6.308590769767761230e-01
4.896450322121381760e-03 -1.734041720628738403e-01 -5.180435776710510254e-01
4.013573005795478821e-02 -2.452754080295562744e-01 -3.771215081214904785e-01
-4.532472491264343262e-01 -1.683469265699386597e-01 -1.303764879703521729e-01
4.700891673564910889e-01 -2.452754080295562744e-01 -9.514110535383224487e-02
5.334992408752441406e-01 -2.452754080295562744e-01 -1.656313240528106689e-01
5.688027143478393555e-01 -1.703892648220062256e-01 -1.092333048582077026e-01
8.242208510637283325e-02 -2.452754080295562744e-01 -4.898397028446197510e-01
-4.109414517879486084e-01 -2.452754080295562744e-01 -2.995122075080871582e-01
-3.898371756076812744e-01 -2.452754080295562744e-01 6.694363802671432495e-02
4.982930719852447510e-01 -2.452754080295562744e-01 -5.250459313392639160e-01
-3.122279047966003418e-01 -1.713618040084838867e-01 -4.969393312931060791e-01
-4.391453266143798828e-01 -1.713618040084838867e-01 -6.730676889419555664e-01
-2.206139415502548218e-01 -2.452754080295562744e-01 -6.026552319526672363e-01
-5.659654736518859863e-01 -2.452754080295562744e-01 -5.673517584800720215e-01
6.019666194915771484e-01 5.433632135391235352e-01 4.603390395641326904e-01
-5.307592749595642090e-01 -2.001492232084274292e-01 1.687693595886230469e-01
5.474066734313964844e-01 -2.023860812187194824e-01 -7.860776185989379883e-01
-5.520580410957336426e-01 -1.705837845802307129e-01 -3.066118061542510986e-01
-3.123251497745513916e-01 -1.772943437099456787e-01 1.728540360927581787e-01
-5.418462753295898438e-01 4.442606568336486816e-01 3.836050331592559814e-01
-1.883253604173660278e-01 -1.695139706134796143e-01 -3.176015615463256836e-01
-4.250434041023254395e-01 -2.059844881296157837e-01 1.581685692071914673e-01
-6.131340265274047852e-01 -2.398291379213333130e-01 6.460952758789062500e-02
-6.178022623062133789e-01 -1.912017911672592163e-01 1.739238500595092773e-01
5.758050680160522461e-01 -8.811175823211669922e-02 2.061151713132858276e-01
-2.065120041370391846e-01 -1.684441715478897095e-01 -1.736548542976379395e-01
2.727593183517456055e-01 6.035639047622680664e-01 4.362198710441589355e-01
-2.781615220010280609e-02 -1.729179024696350098e-01 -5.990570783615112305e-02
-3.334294259548187256e-01 1.686115711927413940e-01 3.449949324131011963e-01
4.418853223323822021e-01 3.006154000759124756e-01 3.441196084022521973e-01
-5.025554299354553223e-01 4.369665682315826416e-01 4.353445470333099365e-01
-3.546309769153594971e-01 2.256514728069305420e-01 3.645431101322174072e-01
6.044952273368835449e-01 -7.362080365419387817e-02 2.519221603870391846e-01
3.009632229804992676e-01 -1.686386764049530029e-01 -9.304078295826911926e-03
3.386007845401763916e-01 -1.760300546884536743e-01 -2.412371635437011719e-01
1.388395577669143677e-01 6.310870051383972168e-01 4.945727288722991943e-01
4.718669876456260681e-02 2.222572863101959229e-01 3.180553615093231201e-01
1.247376203536987305e-01 -5.893533676862716675e-02 2.244963198900222778e-01
6.150960326194763184e-01 -1.778778731822967529e-01 -2.784079015254974365e-01
4.838993549346923828e-01 -1.686386764049530029e-01 3.037585876882076263e-02
-3.757352530956268311e-01 1.048416346311569214e-01 3.248632252216339111e-01
-1.784053891897201538e-01 4.431908428668975830e-01 4.373869001865386963e-01
-1.713057905435562134e-01 2.023000828921794891e-02 2.966593503952026367e-01
6.127891317009925842e-02 -1.066874265670776367e-01 2.544507384300231934e-01
-9.203542023897171021e-03 -1.651375144720077515e-01 2.349998354911804199e-01
8.243182301521301270e-02 -1.683469265699386597e-01 1.063314732164144516e-02
5.123950242996215820e-01 5.278996825218200684e-01 4.655908048152923584e-01
3.643732964992523193e-01 -2.341883778572082520e-01 1.866642087697982788e-01
2.304535210132598877e-01 1.835207194089889526e-01 3.500521481037139893e-01
-1.073121726512908936e-01 5.334432125091552734e-01 4.674386084079742432e-01
-4.461476802825927734e-01 4.629428312182426453e-02 3.054122328758239746e-01
-5.871670246124267578e-01 -2.452754080295562744e-01 -1.757072471082210541e-02
-1.289999783039093018e-01 2.533885240554809570e-01 3.283643722534179688e-01
-5.025554299354553223e-01 2.857062518596649170e-01 3.391596674919128418e-01
-2.559174001216888428e-01 4.058450460433959961e-01 4.249382913112640381e-01
3.290698230266571045e-01 4.859829246997833252e-01 4.057791233062744141e-01
-9.192843921482563019e-03 4.629428312182426453e-02 3.054122328758239746e-01
8.948278427124023438e-02 6.350744366645812988e-01 4.466261267662048340e-01
-2.976124733686447144e-02 -2.293256521224975586e-01 2.050453573465347290e-01
1.670434325933456421e-01 4.388144016265869141e-01 3.900238573551177979e-01
-5.604920163750648499e-02 -1.696112155914306641e-01 -2.180419117212295532e-01
4.277833998203277588e-01 -2.059844881296157837e-01 1.579740941524505615e-01
-4.391453266143798828e-01 -2.124032974243164062e-01 2.193417996168136597e-01
-4.884535074234008789e-01 -1.703892648220062256e-01 9.514750540256500244e-02
4.418853223323822021e-01 -1.688331961631774902e-01 -2.643059790134429932e-01
-4.250434041023254395e-01 -1.708755344152450562e-01 -5.180435776710510254e-01
-5.941693782806396484e-01 -1.703892648220062256e-01 -4.475339055061340332e-01
-5.589631795883178711e-01 -2.452754080295562744e-01 -5.180435776710510254e-01
-3.334294259548187256e-01 -2.452754080295562744e-01 -3.277160525321960449e-01
3.502713441848754883e-01 -1.703892648220062256e-01 -5.673517584800720215e-01
2.604351937770843506e-02 -2.452754080295562744e-01 -2.713083624839782715e-01
-3.968394994735717773e-01 3.914513289928436279e-01 3.742685914039611816e-01
-1.854077130556106567e-01 -4.940438643097877502e-02 2.735127210617065430e-01
-7.968209683895111084e-02 -2.452754080295562744e-01 -6.660653352737426758e-01
4.896450322121381760e-03 -2.452754080295562744e-01 1.053589023649692535e-02
-6.219842433929443359e-01 -2.131813466548919678e-01 -6.942691802978515625e-01
4.911934435367584229e-01 -1.703892648220062256e-01 -7.012715339660644531e-01
3.150651454925537109e-01 -2.452754080295562744e-01 -1.585803627967834473e-01
3.150651454925537109e-01 -2.452754080295562744e-01 -1.021920666098594666e-01
-4.321429729461669922e-01 6.246682405471801758e-01 4.432222247123718262e-01
-2.136115878820419312e-01 -1.763218045234680176e-01 1.394956707954406738e-01
4.961534440517425537e-01 -1.687359213829040527e-01 -6.047951430082321167e-02
-9.377431124448776245e-02 -1.110638901591300964e-01 2.071849703788757324e-01
-5.096550583839416504e-01 3.702498078346252441e-01 3.672662377357482910e-01
-4.250434041023254395e-01 -1.340159922838211060e-01 2.454060614109039307e-01
4.066791236400604248e-01 3.049918711185455322e-01 3.914826810359954834e-01
-4.673492312431335449e-01 -7.566314935684204102e-02 2.647597789764404297e-01
1.552756130695343018e-01 -1.708755344152450562e-01 -6.566315889358520508e-01
-5.290086865425109863e-01 -1.779751479625701904e-01 -2.408189773559570312e-01
-3.052255809307098389e-01 5.702055692672729492e-01 4.796926975250244141e-01
-2.770216763019561768e-01 4.599186480045318604e-01 3.971234858036041260e-01
-2.206139415502548218e-01 6.251544356346130371e-01 4.959342777729034424e-01
-4.603468775749206543e-01 3.103409111499786377e-01 3.932332694530487061e-01
-3.739574179053306580e-02 -2.452754080295562744e-01 1.233513951301574707e-01
4.559872448444366455e-01 -1.318763792514801025e-01 1.917214542627334595e-01
1.195130683481693268e-02 5.654400587081909180e-01 4.770668447017669678e-01
-4.272802472114562988e-01 -1.701947599649429321e-01 -2.671266533434391022e-02
6.007995605468750000e-01 -2.431358247995376587e-01 -3.468781942501664162e-03
3.572736978530883789e-01 2.110953480005264282e-01 3.143596947193145752e-01
4.207810461521148682e-01 2.567627839744091034e-02 2.526029646396636963e-01
-3.404317796230316162e-01 1.309058964252471924e-01 3.335188627243041992e-01
-5.800674557685852051e-01 3.448663055896759033e-01 3.501493930816650391e-01
2.656597495079040527e-01 5.332487821578979492e-01 4.214371442794799805e-01
1.881477087736129761e-01 4.957083761692047119e-01 4.538229405879974365e-01
-1.624283939599990845e-02 3.429212272167205811e-01 3.581242859363555908e-01
-1.078957021236419678e-01 6.301144361495971680e-01 4.449728131294250488e-01
4.559872448444366455e-01 -1.227344498038291931e-01 2.486154884099960327e-01
-5.853892117738723755e-02 2.110953480005264282e-01 3.143596947193145752e-01
5.763885974884033203e-01 -1.684441715478897095e-01 1.793701201677322388e-01
-1.713057905435562134e-01 -1.066874265670776367e-01 2.544507384300231934e-01
5.758050680160522461e-01 -1.437414884567260742e-01 2.411268651485443115e-01
-5.800674557685852051e-01 -7.323177903890609741e-02 2.110751718282699585e-01
-3.827375769615173340e-01 3.214279115200042725e-01 3.963454067707061768e-01
-2.418154627084732056e-01 -1.689304411411285400e-01 -3.559199571609497070e-01
4.559872448444366455e-01 -1.785586625337600708e-01 -3.277160525321960449e-01
3.925771713256835938e-01 4.742151200771331787e-01 4.476959109306335449e-01
-6.204282045364379883e-01 -1.990794241428375244e-01 1.294784396886825562e-01
-7.733826339244842529e-02 6.401317119598388672e-01 4.894181787967681885e-01
-3.122279047966003418e-01 1.400571595877408981e-02 2.946169674396514893e-01
-3.686356544494628906e-01 -1.785586625337600708e-01 4.583936184644699097e-02
-4.180410504341125488e-01 4.905539453029632568e-01 4.528504014015197754e-01
2.938635945320129395e-01 1.687963604927062988e-01 3.002577424049377441e-01
-4.743515253067016602e-01 -1.215581595897674561e-02 2.858640253543853760e-01
-4.949695765972137451e-01 5.595074892044067383e-01 4.760943353176116943e-01
4.911934435367584229e-01 -1.683469265699386597e-01 -2.008667290210723877e-01
-1.360995769500732422e-01 -1.685414463281631470e-01 -1.736062169075012207e-01
2.022496461868286133e-01 1.850087046623229980e-01 3.056067526340484619e-01
6.108167767524719238e-01 -2.351609170436859131e-01 -1.867647916078567505e-01
1.670434325933456421e-01 3.510998934507369995e-02 3.017165660858154297e-01
-2.347158789634704590e-01 -7.195827551186084747e-03 2.876146137714385986e-01
-5.166573524475097656e-01 4.125556349754333496e-01 3.813681900501251221e-01
4.207810461521148682e-01 4.971671998500823975e-01 4.094747900962829590e-01
-1.148980408906936646e-01 1.585354469716548920e-02 2.493935376405715942e-01
1.952473074197769165e-01 3.000999391078948975e-01 3.898293673992156982e-01
2.656597495079040527e-01 -1.731123924255371094e-01 6.801344454288482666e-02
5.899070501327514648e-01 5.986039042472839355e-01 4.345664978027343750e-01
-1.637199223041534424e-01 5.856690406799316406e-01 4.848472476005554199e-01
2.797616720199584961e-01 4.063313007354736328e-01 3.792285919189453125e-01
4.629895985126495361e-01 -5.416984856128692627e-02 2.708868086338043213e-01
-6.206226944923400879e-01 -1.849774569272994995e-01 -7.569012641906738281e-01
4.718669876456260681e-02 3.753070533275604248e-01 3.689195513725280762e-01
2.980455458164215088e-01 -1.693194657564163208e-01 -4.810870811343193054e-02
4.489848911762237549e-01 5.606746077537536621e-01 4.305790960788726807e-01
-2.418154627084732056e-01 1.784634739160537720e-01 3.483015596866607666e-01
4.207810461521148682e-01 2.627444267272949219e-01 3.773807287216186523e-01
-6.167324781417846680e-01 4.210167825222015381e-01 3.948865830898284912e-01
-4.769774079322814941e-01 -1.735986918210983276e-01 -7.865639328956604004e-01
1.253211647272109985e-01 -1.733068972826004028e-01 1.778140366077423096e-01
-6.178995370864868164e-01 6.185411214828491211e-01 4.427359104156494141e-01
1.952473074197769165e-01 -1.815735697746276855e-01 1.273388266563415527e-01
-1.148980408906936646e-01 -1.684441715478897095e-01 -2.854102551937103271e-01
4.719642549753189087e-02 -1.703892648220062256e-01 -4.475339055061340332e-01
6.053705215454101562e-01 4.406622052192687988e-01 4.218261539936065674e-01
-1.784053891897201538e-01 5.660328641533851624e-02 3.078436553478240967e-01
2.304535210132598877e-01 -2.830009907484054565e-02 2.806122601032257080e-01
-1.431019157171249390e-01 3.217197060585021973e-01 3.511219322681427002e-01
6.832988560199737549e-02 3.589682579040527344e-01 4.083077609539031982e-01
-2.142847748473286629e-03 3.164679408073425293e-01 3.948865830898284912e-01
-1.995096653699874878e-01 4.854966700077056885e-01 4.514888525009155273e-01
-1.854077130556106567e-01 -2.346746474504470825e-01 1.797591447830200195e-01
5.198836326599121094e-01 6.603606939315795898e-01 4.554763138294219971e-01
2.649789750576019287e-01 -1.683469265699386597e-01 -3.489176034927368164e-01
6.104277968406677246e-01 -2.060817629098892212e-01 1.670187711715698242e-01
4.071926325559616089e-02 -1.684441715478897095e-01 1.793701201677322388e-01
4.770915210247039795e-01 -2.221287935972213745e-01 2.155488729476928711e-01
-6.075904965400695801e-01 4.566119909286499023e-01 4.266888797283172607e-01
-5.800674557685852051e-01 2.862800657749176025e-01 3.306012153625488281e-01
3.009632229804992676e-01 -2.372032552957534790e-01 1.499019414186477661e-01
-5.519608259201049805e-01 4.954166710376739502e-01 4.547955393791198730e-01
5.828074216842651367e-01 -2.452754080295562744e-01 -3.841238319873809814e-01
6.078991293907165527e-01 -2.382730692625045776e-01 -2.784079015254974365e-01
-2.982232272624969482e-01 6.125113368034362793e-01 4.937946498394012451e-01
-4.109414517879486084e-01 5.490040183067321777e-01 4.725931584835052490e-01
-6.143010854721069336e-01 -1.497620716691017151e-02 2.568821310997009277e-01
-4.749350547790527344e-01 6.438273191452026367e-01 4.865978360176086426e-01
-7.262141257524490356e-02 -1.724316030740737915e-01 -6.448637843132019043e-01
-3.545337021350860596e-01 -1.713618040084838867e-01 -5.391478538513183594e-01
2.233539223670959473e-01 -1.703892648220062256e-01 -4.828373789787292480e-01
-4.743515253067016602e-01 -2.452754080295562744e-01 -3.207137286663055420e-01
1.599438339471817017e-01 -2.452754080295562744e-01 -4.475339055061340332e-01
-1.289999783039093018e-01 -2.452754080295562744e-01 -5.885532498359680176e-01
-4.391453266143798828e-01 -2.452754080295562744e-01 -4.969393312931060791e-01
-5.166573524475097656e-01 -2.452754080295562744e-01 -5.109440088272094727e-01
-1.007961034774780273e-01 -2.452754080295562744e-01 -2.995122075080871582e-01
5.129785537719726562e-01 -1.846857070922851562e-01 1.739238500595092773e-01
6.126918643712997437e-02 -1.684441715478897095e-01 -1.867647916078567505e-01
5.546035766601562500e-01 -1.704865097999572754e-01 -1.797332763671875000e-01
1.603328585624694824e-01 -1.722370982170104980e-01 -5.462474822998046875e-01
-2.277135401964187622e-01 -2.452754080295562744e-01 -5.285474285483360291e-02
2.604351937770843506e-02 -2.452754080295562744e-01 7.404323667287826538e-02
2.233539223670959473e-01 -2.452754080295562744e-01 -1.585803627967834473e-01
4.277833998203277588e-01 1.429747045040130615e-02 2.937417030334472656e-01
1.881477087736129761e-01 -2.452754080295562744e-01 -7.576792836189270020e-01
8.242208510637283325e-02 -2.452754080295562744e-01 -1.233352497220039368e-01
1.898282580077648163e-02 -1.683469265699386597e-01 -1.444832831621170044e-01
-5.518635511398315430e-01 -1.703892648220062256e-01 -4.546335041522979736e-01
4.347857236862182617e-01 -1.704865097999572754e-01 9.514750540256500244e-02
1.317399591207504272e-01 -2.452754080295562744e-01 -6.660653352737426758e-01
3.713756501674652100e-01 -2.452754080295562744e-01 -8.104889094829559326e-02
-3.475313484668731689e-01 -2.452754080295562744e-01 -6.448637843132019043e-01
2.727593183517456055e-01 -1.703892648220062256e-01 -6.026552319526672363e-01
2.092519998550415039e-01 -2.452754080295562744e-01 -5.673517584800720215e-01
-1.854077130556106567e-01 -2.452754080295562744e-01 -1.938157528638839722e-01
-5.166573524475097656e-01 -2.452754080295562744e-01 -6.026552319526672363e-01
-1.219976469874382019e-01 -2.452754080295562744e-01 -1.757072471082210541e-02
2.868612706661224365e-01 -2.452754080295562744e-01 -3.136141300201416016e-01
4.489848911762237549e-01 -2.452754080295562744e-01 -7.365750074386596680e-01
-3.193275034427642822e-01 -1.703892648220062256e-01 -6.448637843132019043e-01
-3.545337021350860596e-01 -1.703892648220062256e-01 -7.012715339660644531e-01
3.643732964992523193e-01 -2.452754080295562744e-01 -4.193300306797027588e-01
-3.404317796230316162e-01 -2.452754080295562744e-01 -3.167266026139259338e-02
-2.559174001216888428e-01 -2.452754080295562744e-01 -5.180435776710510254e-01
-1.924100667238235474e-01 -2.452754080295562744e-01 -6.871695518493652344e-01
2.092519998550415039e-01 -2.452754080295562744e-01 -4.969393312931060791e-01
-4.955530762672424316e-01 -2.452754080295562744e-01 -5.603494048118591309e-01
4.559872448444366455e-01 -2.452754080295562744e-01 -6.519633531570434570e-01
-1.572038531303405762e-01 -2.452754080295562744e-01 -1.585803627967834473e-01
4.896450322121381760e-03 -2.452754080295562744e-01 -6.871695518493652344e-01
1.599438339471817017e-01 -2.452754080295562744e-01 -2.008667290210723877e-01
-3.897399306297302246e-01 -1.684441715478897095e-01 -2.454385608434677124e-01
-5.096550583839416504e-01 -1.703892648220062256e-01 1.304509788751602173e-01
-6.219842433929443359e-01 -1.849774569272994995e-01 -5.885532498359680176e-01
-6.210116744041442871e-01 -2.200864255428314209e-01 -1.017937064170837402e-02
6.078991293907165527e-01 -2.382730692625045776e-01 -5.250459313392639160e-01
-3.263298273086547852e-01 5.901427268981933594e-01 4.317461550235748291e-01
5.334992408752441406e-01 -1.703892648220062256e-01 8.104557543992996216e-02
5.758050680160522461e-01 5.189523100852966309e-01 4.080160260200500488e-01
2.094464898109436035e-01 -1.684441715478897095e-01 -1.027366966009140015e-01
-5.307592749595642090e-01 -2.452754080295562744e-01 1.233513951301574707e-01
-5.795539543032646179e-02 5.595074892044067383e-01 4.760943353176116943e-01
5.268859267234802246e-01 -3.753929585218429565e-02 2.309151291847229004e-01
-5.800674557685852051e-01 2.266138978302478790e-02 2.429747134447097778e-01
-4.673492312431335449e-01 -1.684441715478897095e-01 -3.418180346488952637e-01
-2.559174001216888428e-01 -1.579406559467315674e-01 1.828712821006774902e-01
4.770915210247039795e-01 -1.703892648220062256e-01 8.104557543992996216e-02
-3.968394994735717773e-01 -1.784614175558090210e-01 -4.123277068138122559e-01
3.361694216728210449e-01 -1.318763792514801025e-01 1.917214542627334595e-01
5.969094038009643555e-01 9.589419513940811157e-02 2.672884166240692139e-01
6.034254431724548340e-01 4.474750254303216934e-03 2.790562212467193604e-01
3.572736978530883789e-01 -1.713618040084838867e-01 7.433500140905380249e-02
5.984654426574707031e-01 3.069369792938232422e-01 3.859391808509826660e-01
-5.800674557685852051e-01 4.716864824295043945e-01 3.923579454421997070e-01
4.982930719852447510e-01 1.525548100471496582e-01 2.948114871978759766e-01
-3.968394994735717773e-01 6.189301609992980957e-01 4.956425130367279053e-01
-2.841213047504425049e-01 -8.995959162712097168e-02 2.141873240470886230e-01
5.405988693237304688e-01 -1.274999380111694336e-01 2.465731501579284668e-01
-6.191638112068176270e-01 -2.319515347480773926e-01 -6.096575260162353516e-01
-1.572038531303405762e-01 -1.761272996664047241e-01 -3.922932147979736328e-01
5.193973779678344727e-01 4.369665682315826416e-01 4.353445470333099365e-01
-4.884535074234008789e-01 7.235854864120483398e-02 3.140679299831390381e-01
4.562790393829345703e-01 1.994442343711853027e-01 3.555957078933715820e-01
-4.250434041023254395e-01 -5.347985308617353439e-03 2.422939389944076538e-01
1.899255067110061646e-02 4.191781952977180481e-02 2.580491900444030762e-01
-2.770216763019561768e-01 4.792723655700683594e-01 4.494464993476867676e-01
-5.659654736518859863e-01 -8.062314987182617188e-02 2.632036805152893066e-01
-3.827375769615173340e-01 -1.703892648220062256e-01 -7.576792836189270020e-01
1.881477087736129761e-01 -1.703892648220062256e-01 -4.687354266643524170e-01
-3.475313484668731689e-01 5.278996825218200684e-01 4.655908048152923584e-01
-5.307592749595642090e-01 -1.277917027473449707e-01 2.474484145641326904e-01
-3.458780348300933838e-01 -1.715563088655471802e-01 -7.839380502700805664e-01
-1.148980408906936646e-01 1.850087046623229980e-01 3.056067526340484619e-01
-4.514966607093811035e-01 -1.781696379184722900e-01 -4.183575212955474854e-01
-6.101191639900207520e-01 -6.486787647008895874e-02 2.490045130252838135e-01
-3.334294259548187256e-01 -1.223454251885414124e-01 2.033920437097549438e-01
-1.202470511198043823e-01 -1.781696379184722900e-01 -4.183575212955474854e-01
-5.096550583839416504e-01 -1.713618040084838867e-01 -7.506769299507141113e-01
-5.168518424034118652e-01 -1.786559224128723145e-01 -1.726823002099990845e-01
-1.431019157171249390e-01 6.197082400321960449e-01 4.415688514709472656e-01
3.361694216728210449e-01 -1.760300546884536743e-01 1.505827158689498901e-01
2.727593183517456055e-01 3.946607410907745361e-01 4.213398694992065430e-01
-4.250434041023254395e-01 7.420638948678970337e-02 2.687471807003021240e-01
2.233539223670959473e-01 5.704972743988037109e-01 4.787201583385467529e-01
-2.770216763019561768e-01 2.531161904335021973e-01 3.734905421733856201e-01
-3.739574179053306580e-02 4.531108438968658447e-01 4.406935870647430420e-01
5.828074216842651367e-01 1.444923877716064453e-01 2.834326624870300293e-01
-2.770216763019561768e-01 3.702498078346252441e-01 3.672662377357482910e-01
5.123950242996215820e-01 -1.785586625337600708e-01 -2.996094524860382080e-01
-2.770216763019561768e-01 1.149658560752868652e-01 3.273918628692626953e-01
-9.848143905401229858e-02 -1.757382601499557495e-01 -9.299176931381225586e-02
9.653375297784805298e-02 5.543529987335205078e-01 4.285367429256439209e-01
-5.041115283966064453e-01 -1.694167256355285645e-01 -1.092527657747268677e-01
-2.272000536322593689e-02 5.757490992546081543e-01 4.815405607223510742e-01
-2.136115878820419312e-01 5.278996825218200684e-01 4.655908048152923584e-01
-3.851689398288726807e-01 -2.092911601066589355e-01 1.619615256786346436e-01
5.289282798767089844e-01 -1.757382601499557495e-01 1.111942902207374573e-02
5.126867890357971191e-01 -1.716535836458206177e-01 -4.340155124664306641e-01
3.504658639430999756e-01 -1.683469265699386597e-01 -1.593583971261978149e-01
3.854775726795196533e-01 -1.730151474475860596e-01 -9.586078673601150513e-02
2.374558746814727783e-01 -1.684441715478897095e-01 1.763549074530601501e-02
4.200029969215393066e-01 -1.728206276893615723e-01 3.601664304733276367e-02
-1.389900036156177521e-02 -1.765163242816925049e-01 -9.309874475002288818e-02
-5.579906105995178223e-01 -1.770025789737701416e-01 -7.866612076759338379e-01
5.758050680160522461e-01 3.074232637882232666e-01 3.377008140087127686e-01
-4.673492312431335449e-01 -1.684441715478897095e-01 -2.854102551937103271e-01
-1.148980408906936646e-01 -2.177523225545883179e-01 2.175912261009216309e-01
-5.658682584762573242e-01 -2.132785916328430176e-01 -7.863693833351135254e-01
-5.347467660903930664e-01 5.726369023323059082e-01 4.320379197597503662e-01
-1.713057905435562134e-01 -1.264301389455795288e-01 1.993073374032974243e-01
-3.734011054039001465e-01 -2.364252358675003052e-01 -7.811176776885986328e-01
-1.883253604173660278e-01 6.538445949554443359e-01 4.765805602073669434e-01
-4.391453266143798828e-01 4.063313007354736328e-01 3.792285919189453125e-01
3.572736978530883789e-01 -2.452754080295562744e-01 -6.660653352737426758e-01
1.317399591207504272e-01 -2.452754080295562744e-01 -5.462474822998046875e-01
-3.898371756076812744e-01 -1.713618040084838867e-01 -5.039416551589965820e-01
9.653375297784805298e-02 3.330984711647033691e-01 3.549149334430694580e-01
4.911934435367584229e-01 5.022245049476623535e-01 4.111281633377075195e-01
-3.739574179053306580e-02 -3.831733390688896179e-02 2.772083580493927002e-01
1.811453849077224731e-01 -5.271104723215103149e-02 2.265386581420898438e-01
-2.136115878820419312e-01 4.437744021415710449e-01 3.916771709918975830e-01
-4.461476802825927734e-01 -5.893533676862716675e-02 2.244963198900222778e-01
6.832988560199737549e-02 -2.452754080295562744e-01 -6.694695353507995605e-02
1.952473074197769165e-01 2.528924942016601562e-01 3.740741014480590820e-01
1.195130683481693268e-02 1.097529977560043335e-01 3.265165388584136963e-01
1.106356903910636902e-01 -1.693194657564163208e-01 -7.083711624145507812e-01
-3.034477680921554565e-02 -2.452754080295562744e-01 -5.885532498359680176e-01
-5.853892117738723755e-02 -2.452754080295562744e-01 4.583936184644699097e-02
8.947306126356124878e-02 -2.452754080295562744e-01 -3.136141300201416016e-01
-6.192610859870910645e-01 -2.056927382946014404e-01 -1.053528487682342529e-01
3.308476135134696960e-02 -2.452754080295562744e-01 -1.726725846529006958e-01
4.277833998203277588e-01 2.273048013448715210e-01 3.197087347507476807e-01
1.670434325933456421e-01 1.687963604927062988e-01 3.002577424049377441e-01
-6.558015942573547363e-02 -1.724316030740737915e-01 -5.321455597877502441e-01
1.388395577669143677e-01 7.926363497972488403e-02 2.704977691173553467e-01
-3.404317796230316162e-01 8.373735100030899048e-02 3.177635967731475830e-01
4.418853223323822021e-01 -2.452754080295562744e-01 -1.303862184286117554e-01
5.405988693237304688e-01 -2.452754080295562744e-01 -1.303862184286117554e-01
7.538084685802459717e-02 -2.452754080295562744e-01 -2.008667290210723877e-01
-2.206139415502548218e-01 -1.318763792514801025e-01 1.917214542627334595e-01
2.604351937770843506e-02 -8.062314987182617188e-02 2.632036805152893066e-01
-4.955530762672424316e-01 -2.452754080295562744e-01 -2.431530654430389404e-01
-2.911235988140106201e-01 -1.684441715478897095e-01 -1.092430353164672852e-01
5.334992408752441406e-01 2.317396104335784912e-01 3.670717477798461914e-01
-5.166573524475097656e-01 3.100491166114807129e-01 3.931359946727752686e-01
1.529414951801300049e-01 -1.684441715478897095e-01 -2.854102551937103271e-01
2.515578269958496094e-01 -1.706810295581817627e-01 -6.801671981811523438e-01
3.502713441848754883e-01 -2.452754080295562744e-01 -5.744513273239135742e-01
3.502713441848754883e-01 3.523549437522888184e-01 4.072379469871520996e-01
4.066791236400604248e-01 -2.452754080295562744e-01 -3.559199571609497070e-01
-1.713057905435562134e-01 -2.452754080295562744e-01 -3.911261856555938721e-01
2.022496461868286133e-01 8.402912318706512451e-02 3.168883323669433594e-01
-4.955530762672424316e-01 1.079629920423030853e-02 2.476429492235183716e-01
-1.502014994621276855e-01 -1.711580529808998108e-02 2.843079864978790283e-01
2.938635945320129395e-01 1.004651710391044617e-01 2.775001227855682373e-01
-3.757352530956268311e-01 -2.452754080295562744e-01 -5.250459313392639160e-01
-4.884535074234008789e-01 -2.452754080295562744e-01 -6.660653352737426758e-01
4.559872448444366455e-01 -1.713618040084838867e-01 -6.096575260162353516e-01
3.431717455387115479e-01 2.677919268608093262e-01 3.791313171386718750e-01
-5.730651021003723145e-01 -1.703892648220062256e-01 -5.885532498359680176e-01
-6.558989733457565308e-02 3.523549437522888184e-01 4.072379469871520996e-01
1.458419114351272583e-01 -6.438160687685012817e-02 2.685527205467224121e-01
-7.967237383127212524e-02 -1.724316030740737915e-01 -6.096575260162353516e-01
-6.558989733457565308e-02 -2.452754080295562744e-01 -3.700218796730041504e-01
4.700891673564910889e-01 -2.452754080295562744e-01 -1.585803627967834473e-01
-4.039391279220581055e-01 -2.452754080295562744e-01 -2.149686664342880249e-01
5.052953958511352539e-01 -2.452754080295562744e-01 -4.475339055061340332e-01
-2.488178163766860962e-01 -2.452754080295562744e-01 -4.405315518379211426e-01
-5.237569212913513184e-01 -2.452754080295562744e-01 8.814518153667449951e-02
9.653375297784805298e-02 -1.734041720628738403e-01 -4.758350253105163574e-01
4.418853223323822021e-01 -1.713618040084838867e-01 -5.603494048118591309e-01
-2.559174001216888428e-01 -2.452754080295562744e-01 2.463783323764801025e-02
1.811453849077224731e-01 -1.703892648220062256e-01 -7.576792836189270020e-01
3.150651454925537109e-01 -1.703892648220062256e-01 -5.603494048118591309e-01
5.828074216842651367e-01 1.918457299470901489e-01 2.991879284381866455e-01
-1.289999783039093018e-01 -1.683469265699386597e-01 -3.277160525321960449e-01
7.538084685802459717e-02 4.909429252147674561e-01 4.074324369430541992e-01
-3.827375769615173340e-01 2.743177115917205811e-01 3.803956508636474609e-01
-2.330353297293186188e-02 -7.381531596183776855e-02 2.195363193750381470e-01
-6.147873997688293457e-01 -1.139815226197242737e-01 2.227457314729690552e-01
4.629895985126495361e-01 4.854966700077056885e-01 4.514888525009155273e-01
-5.800674557685852051e-01 5.513381361961364746e-01 4.188112914562225342e-01
2.304535210132598877e-01 2.794430553913116455e-01 3.370200395584106445e-01
3.502713441848754883e-01 3.100491166114807129e-01 3.931359946727752686e-01
-4.884535074234008789e-01 6.399372220039367676e-01 4.482794404029846191e-01
-5.025554299354553223e-01 1.832970380783081055e-01 3.506357073783874512e-01
-3.757352530956268311e-01 4.337571561336517334e-01 3.883705437183380127e-01
-1.581763923168182373e-01 -1.728206276893615723e-01 1.763549074530601501e-02
2.797616720199584961e-01 1.896477490663528442e-01 3.523862957954406738e-01
-4.602496027946472168e-01 4.337571561336517334e-01 3.883705437183380127e-01
6.127891317009925842e-02 4.584598541259765625e-01 4.414716362953186035e-01
-5.794839262962341309e-01 6.068705320358276367e-01 4.918496012687683105e-01
-2.841213047504425049e-01 -2.179468423128128052e-01 2.174939811229705811e-01
-2.142847748473286629e-03 -1.707782894372940063e-01 -7.703223824501037598e-01
-3.827375769615173340e-01 -1.264301389455795288e-01 1.993073374032974243e-01
4.559872448444366455e-01 1.079629920423030853e-02 2.476429492235183716e-01
2.445554733276367188e-01 8.889185637235641479e-02 3.185416460037231445e-01
8.242208510637283325e-02 2.254958599805831909e-01 3.650294244289398193e-01
-3.966450095176696777e-01 4.220865666866302490e-01 4.301900565624237061e-01
1.106356903910636902e-01 1.165122017264366150e-01 2.828491628170013428e-01
2.233539223670959473e-01 2.322453409433364868e-01 3.213620483875274658e-01
5.405988693237304688e-01 4.792723655700683594e-01 4.494464993476867676e-01
-1.643034517765045166e-01 5.494902729988098145e-01 4.268833696842193604e-01
-2.911235988140106201e-01 -2.830009907484054565e-02 2.806122601032257080e-01
-4.250434041023254395e-01 2.857062518596649170e-01 3.391596674919128418e-01
2.233539223670959473e-01 4.745068848133087158e-01 4.468205869197845459e-01
3.925771713256835938e-01 5.445302724838256836e-01 4.252300560474395752e-01
3.931607007980346680e-01 -1.734041720628738403e-01 1.777168065309524536e-01
6.832988560199737549e-02 -2.177523225545883179e-01 2.175912261009216309e-01
-1.713057905435562134e-01 -2.178495675325393677e-01 2.174939811229705811e-01
-4.532472491264343262e-01 5.543529987335205078e-01 4.285367429256439209e-01
-2.269355058670043945e-01 -2.128895968198776245e-01 -7.863693833351135254e-01
2.604351937770843506e-02 7.926363497972488403e-02 2.704977691173553467e-01
6.138316988945007324e-01 -2.009272426366806030e-01 -1.115868762135505676e-01
-3.739574179053306580e-02 3.988468088209629059e-03 2.913103401660919189e-01
-1.625256612896919250e-02 5.445302724838256836e-01 4.252300560474395752e-01
-6.186776161193847656e-01 -1.741821914911270142e-01 -8.046536147594451904e-02
6.128863617777824402e-02 5.494902729988098145e-01 4.268833696842193604e-01
2.604351937770843506e-02 2.577941715717315674e-01 3.757274150848388672e-01
5.828074216842651367e-01 3.034451231360435486e-02 2.993824779987335205e-01
1.035360917448997498e-01 -1.277917027473449707e-01 2.474484145641326904e-01
-2.770216763019561768e-01 -1.390732377767562866e-01 2.436554878950119019e-01
2.093492597341537476e-01 4.388144016265869141e-01 3.900238573551177979e-01
5.193973779678344727e-01 3.429212272167205811e-01 3.581242859363555908e-01
-3.193275034427642822e-01 4.643923938274383545e-01 4.444864988327026367e-01
3.502713441848754883e-01 -1.698057353496551514e-01 2.324711978435516357e-01
-4.250434041023254395e-01 -1.813790500164031982e-01 2.296508103609085083e-01
-5.147822946310043335e-02 4.698386788368225098e-01 4.003328382968902588e-01
3.784752190113067627e-01 3.591627478599548340e-01 3.635705709457397461e-01
9.653375297784805298e-02 -1.683469265699386597e-01 -6.730676889419555664e-01
2.586573958396911621e-01 1.474586576223373413e-01 3.379925787448883057e-01
-1.219976469874382019e-01 8.402912318706512451e-02 3.168883323669433594e-01
4.418853223323822021e-01 3.847407698631286621e-01 4.179359674453735352e-01
3.309449180960655212e-02 3.005274385213851929e-02 2.999659776687622070e-01
-4.180410504341125488e-01 5.657318234443664551e-01 4.322324097156524658e-01
-2.911235988140106201e-01 -1.793367117643356323e-01 1.306454986333847046e-01
-2.774107158184051514e-01 -1.683469265699386597e-01 -1.444774419069290161e-01
2.304535210132598877e-01 -1.971343308687210083e-01 2.234265208244323730e-01
-3.827375769615173340e-01 -1.684441715478897095e-01 -1.233255267143249512e-01
-9.378404170274734497e-02 -1.693194657564163208e-01 -6.730676889419555664e-01
-3.686356544494628906e-01 4.009823203086853027e-01 4.233822524547576904e-01
4.753409326076507568e-01 -1.692222207784652710e-01 -3.580595254898071289e-01
-1.078957021236419678e-01 -2.452754080295562744e-01 1.022471189498901367e-01
5.264969468116760254e-01 1.835012584924697876e-01 3.500521481037139893e-01
2.445554733276367188e-01 -2.452754080295562744e-01 -5.673517584800720215e-01
3.643732964992523193e-01 -2.452754080295562744e-01 8.104557543992996216e-02
3.009632229804992676e-01 -1.703892648220062256e-01 -7.294753789901733398e-01
5.193973779678344727e-01 -1.367391347885131836e-01 1.898736357688903809e-01
5.405988693237304688e-01 6.076486110687255859e-01 4.914605617523193359e-01
4.207810461521148682e-01 -6.379806995391845703e-02 2.228429764509201050e-01
1.529414951801300049e-01 -2.452754080295562744e-01 2.463783323764801025e-02
2.586573958396911621e-01 -2.452754080295562744e-01 -6.237595081329345703e-01
2.515578269958496094e-01 5.657318234443664551e-01 4.322324097156524658e-01
4.136814177036285400e-01 -2.452754080295562744e-01 -5.990570783615112305e-02
4.982930719852447510e-01 -5.893533676862716675e-02 2.244963198900222778e-01
-2.065120041370391846e-01 -1.552175283432006836e-01 2.384037375450134277e-01
-1.713057905435562134e-01 -1.717508286237716675e-01 -4.968420565128326416e-01
-8.672334253787994385e-02 -1.684441715478897095e-01 -1.303959339857101440e-01
2.163515836000442505e-01 -2.452754080295562744e-01 -4.193300306797027588e-01
-1.007961034774780273e-01 -2.452754080295562744e-01 -5.532498359680175781e-01
2.727593183517456055e-01 -2.452754080295562744e-01 -2.572063803672790527e-01
-3.898371756076812744e-01 -1.713618040084838867e-01 -6.096575260162353516e-01
3.784752190113067627e-01 -2.452754080295562744e-01 -5.532498359680175781e-01
4.418853223323822021e-01 -1.703892648220062256e-01 -7.012715339660644531e-01
3.854775726795196533e-01 -1.713618040084838867e-01 -5.955556035041809082e-01
-5.730651021003723145e-01 -1.703892648220062256e-01 -6.378614902496337891e-01
-5.307592749595642090e-01 -2.452754080295562744e-01 -2.572063803672790527e-01
-2.418154627084732056e-01 -2.452754080295562744e-01 -6.308590769767761230e-01
-5.853892117738723755e-02 -2.452754080295562744e-01 -3.136141300201416016e-01
-1.078957021236419678e-01 4.971671998500823975e-01 4.094747900962829590e-01
-7.264085859060287476e-02 -1.686386764049530029e-01 -7.153734564781188965e-01
-3.739574179053306580e-02 -1.686386764049530029e-01 -7.083711624145507812e-01
-5.730651021003723145e-01 -2.452754080295562744e-01 -2.784079015254974365e-01
-3.475313484668731689e-01 -1.791421920061111450e-01 1.664352267980575562e-01
-2.700193226337432861e-01 -2.452754080295562744e-01 -1.092430353164672852e-01
-2.136115878820419312e-01 -2.452754080295562744e-01 -1.092430353164672852e-01
6.171383857727050781e-01 3.647063076496124268e-01 3.630842864513397217e-01
-9.378404170274734497e-02 -2.438165992498397827e-01 -7.699334025382995605e-01
1.900227740406990051e-02 4.971671998500823975e-01 4.094747900962829590e-01
1.194158289581537247e-02 -2.330213040113449097e-01 1.932775378227233887e-01
5.421821773052215576e-02 -1.727233976125717163e-01 -5.955556035041809082e-01
-1.431019157171249390e-01 -2.452754080295562744e-01 -5.990570783615112305e-02
-5.148795247077941895e-02 -2.452754080295562744e-01 -2.431530654430389404e-01
5.334992408752441406e-01 -2.452754080295562744e-01 -2.572063803672790527e-01
-1.502014994621276855e-01 -1.724316030740737915e-01 -6.166598796844482422e-01
8.242208510637283325e-02 -2.452754080295562744e-01 -6.730676889419555664e-01
-5.941693782806396484e-01 -1.703892648220062256e-01 1.233513951301574707e-01
2.233539223670959473e-01 -1.683469265699386597e-01 -4.577459767460823059e-02
-1.219976469874382019e-01 -2.452754080295562744e-01 -2.361118346452713013e-01
5.263024568557739258e-01 1.264224499464035034e-01 2.865447998046875000e-01
-1.995096653699874878e-01 -1.706810295581817627e-01 -6.096575260162353516e-01
3.009632229804992676e-01 -1.706810295581817627e-01 -6.237595081329345703e-01
5.264969468116760254e-01 -1.703892648220062256e-01 -7.083711624145507812e-01
5.123950242996215820e-01 -2.452754080295562744e-01 -7.435773611068725586e-01
4.841911196708679199e-01 -2.452754080295562744e-01 -5.955556035041809082e-01
3.925771713256835938e-01 -2.452754080295562744e-01 -7.224730253219604492e-01
-2.136115878820419312e-01 -1.703892648220062256e-01 -6.801671981811523438e-01
5.193973779678344727e-01 -1.703892648220062256e-01 -6.589657068252563477e-01
4.136814177036285400e-01 -2.452754080295562744e-01 3.173743560910224915e-02
-2.700193226337432861e-01 -2.452754080295562744e-01 -2.784079015254974365e-01
3.713756501674652100e-01 -1.703892648220062256e-01 -7.012715339660644531e-01
-5.448612570762634277e-01 -1.713618040084838867e-01 -6.871695518493652344e-01
3.854775726795196533e-01 -1.703892648220062256e-01 -7.576792836189270020e-01
1.388395577669143677e-01 -2.452754080295562744e-01 -1.056838221848011017e-02
-4.250434041023254395e-01 -2.452754080295562744e-01 -6.589657068252563477e-01
-3.616333007812500000e-01 -1.708755344152450562e-01 -5.744513273239135742e-01
-4.673492312431335449e-01 -2.452754080295562744e-01 -4.546335041522979736e-01
5.688027143478393555e-01 -2.452754080295562744e-01 1.022471189498901367e-01
3.713756501674652100e-01 -1.703892648220062256e-01 -5.250459313392639160e-01
-4.532472491264343262e-01 -1.713618040084838867e-01 -6.237595081329345703e-01
5.405988693237304688e-01 -2.452754080295562744e-01 -5.180435776710510254e-01
-4.461476802825927734e-01 -2.452754080295562744e-01 -5.673517584800720215e-01
-9.377431124448776245e-02 1.525548100471496582e-01 2.948114871978759766e-01
3.572736978530883789e-01 -2.452754080295562744e-01 -1.726725846529006958e-01
-5.800674557685852051e-01 -1.704865097999572754e-01 -7.224730253219604492e-01
-5.096550583839416504e-01 -2.346746474504470825e-01 1.797591447830200195e-01
9.653375297784805298e-02 -2.452754080295562744e-01 -2.431530654430389404e-01
-1.431019157171249390e-01 -1.689304411411285400e-01 -7.223758101463317871e-01
-1.525356322526931763e-01 -1.806010305881500244e-01 1.100274845957756042e-01
3.149679005146026611e-01 1.897061169147491455e-01 3.521917462348937988e-01
-1.925073266029357910e-01 3.424349427223205566e-01 4.037367999553680420e-01
2.938635945320129395e-01 -2.178495675325393677e-01 2.174939811229705811e-01
2.515578269958496094e-01 3.312506675720214844e-01 4.002356231212615967e-01
-4.442726075649261475e-02 -1.724316030740737915e-01 -5.814536809921264648e-01
-1.502014994621276855e-01 -2.452754080295562744e-01 -6.237595081329345703e-01
2.022496461868286133e-01 -2.452754080295562744e-01 -2.431530654430389404e-01
1.951500475406646729e-01 -2.452754080295562744e-01 -4.475339055061340332e-01
-4.321429729461669922e-01 -2.452754080295562744e-01 -7.294753789901733398e-01
4.207810461521148682e-01 -2.452754080295562744e-01 -6.519633531570434570e-01
8.242208510637283325e-02 -2.452754080295562744e-01 -5.250459313392639160e-01
3.361694216728210449e-01 4.280237480998039246e-03 2.903378009796142578e-01
5.334992408752441406e-01 -6.806802004575729370e-03 2.867393493652343750e-01
